ncols         263
nrows         30
xllcorner     800
yllcorner     5687.5
cellsize      12.5
NODATA_value  -9999
-9999	-9999	-9999	-9999	-9999	-9999	-9999	-9999	-9999	-9999	-9999	-9999	-9999	-9999	-9999	-9999	-9999	-9999	-9999	-9999	-9999	-9999	-9999	-9999	-9999	-9999	-9999	-9999	-9999	-9999	-9999	-9999	-9999	-9999	-9999	-9999	-9999	-9999	-9999	-9999	-9999	-9999	-9999	-9999	-9999	-9999	-9999	-9999	-9999	-9999	-9999	-9999	-9999	-9999	-9999	-9999	-9999	-9999	-9999	-9999	-9999	-9999	-9999	-9999	-9999	-9999	-9999	-9999	-9999	-9999	-9999	-9999	-9999	-9999	-9999	-9999	-9999	-9999	-9999	-9999	-9999	-9999	-9999	-9999	-9999	-9999	-9999	-9999	-9999	-9999	-9999	-9999	-9999	-9999	-9999	-9999	-9999	-9999	-9999	-9999	-9999	-9999	-9999	-9999	-9999	-9999	-9999	-9999	-9999	-9999	-9999	-9999	-9999	-9999	-9999	-9999	-9999	-9999	-9999	-9999	-9999	-9999	-9999	-9999	-9999	-9999	-9999	-9999	-9999	-9999	-9999	-9999	-9999	-9999	-9999	-9999	-9999	-9999	-9999	-9999	-9999	406.773129609434	406.773129609434	407.773129609434	407.773129609434	408.773129609434	410.773129609434	411.773129609434	411.773129609434	411.773129609434	412.773129609434	411.773129609434	409.773129609434	406.773129609434	401.773129609434	396.773129609434	390.773129609434	385.773129609434	380.773129609434	375.773129609434	371.773129609434	367.773129609434	363.773129609434	358.773129609434	353.773129609434	347.773129609434	341.773129609434	336.773129609434	330.773129609434	324.773129609434	318.773129609434	313.773129609434	308.773129609434	304.773129609434	298.773129609434	293.773129609434	287.773129609434	281.773129609434	275.773129609434	270.773129609434	266.773129609434	262.773129609434	258.773129609434	253.773129609434	247.773129609434	242.773129609434	236.773129609434	230.773129609434	225.773129609434	220.773129609434	215.773129609434	209.773129609434	202.773129609434	196.773129609434	189.773129609434	184.773129609434	179.773129609434	175.773129609434	171.773129609434	167.773129609434	164.773129609434	162.773129609434	159.773129609434	155.773129609434	150.773129609434	146.773129609434	142.773129609434	139.773129609434	135.773129609434	131.773129609434	128.773129609434	124.773129609434	121.773129609434	117.773129609434	114.773129609434	111.773129609434	108.773129609434	105.773129609434	100.773129609434	95.7731296094342	89.7731296094342	82.7731296094342	77.7731296094342	72.7731296094342	66.7731296094342	61.7731296094342	54.7731296094342	48.7731296094342	40.7731296094342	28.7731296094342	13.7731296094342	8.59795828740671	7.53677458125105	6.53883906658881	5.70444797094668	5.09981127072194	4.68986119921208	4.42096133481267	4.25154818191234	4.16052269245422	4.12911433998152	4.14651581687903	4.20988303437306	4.31604019382421	4.45481273825720	4.61189721881204	4.77329930609583	4.92698527068597	5.06158387283748	5.16925158461307	5.25262551640072	5.31626859757959	5.36382384762794	5.39737497488999	5.41891931034859	5.43194149763791	5.44141349304337	5.45186564860011	5.46260177951320	5.46984232469903	5.47067540633203	5.46709780522675	5.46275797666638
-9999	-9999	-9999	-9999	-9999	-9999	-9999	-9999	-9999	-9999	-9999	-9999	-9999	-9999	-9999	-9999	-9999	-9999	-9999	-9999	-9999	-9999	-9999	-9999	-9999	-9999	-9999	-9999	-9999	-9999	-9999	-9999	-9999	-9999	-9999	-9999	-9999	-9999	-9999	-9999	-9999	-9999	-9999	-9999	-9999	-9999	-9999	-9999	-9999	-9999	-9999	-9999	-9999	-9999	-9999	-9999	-9999	-9999	-9999	-9999	-9999	-9999	-9999	-9999	-9999	-9999	-9999	-9999	-9999	-9999	-9999	-9999	-9999	-9999	-9999	-9999	-9999	-9999	-9999	-9999	-9999	-9999	-9999	-9999	-9999	-9999	-9999	-9999	-9999	-9999	-9999	-9999	-9999	-9999	-9999	-9999	-9999	-9999	-9999	-9999	-9999	-9999	-9999	-9999	-9999	-9999	-9999	-9999	-9999	-9999	-9999	-9999	-9999	-9999	-9999	-9999	-9999	-9999	-9999	-9999	-9999	-9999	-9999	-9999	-9999	-9999	-9999	-9999	-9999	-9999	-9999	-9999	-9999	-9999	-9999	-9999	-9999	-9999	-9999	405.773129609434	405.773129609434	405.773129609434	404.773129609434	404.773129609434	405.773129609434	406.773129609434	407.773129609434	408.773129609434	409.773129609434	410.773129609434	410.773129609434	410.773129609434	407.773129609434	404.773129609434	399.773129609434	393.773129609434	388.773129609434	382.773129609434	377.773129609434	373.773129609434	369.773129609434	365.773129609434	360.773129609434	355.773129609434	349.773129609434	342.773129609434	336.773129609434	331.773129609434	326.773129609434	320.773129609434	315.773129609434	310.773129609434	305.773129609434	300.773129609434	294.773129609434	289.773129609434	283.773129609434	278.773129609434	272.773129609434	268.773129609434	263.773129609434	258.773129609434	254.773129609434	249.773129609434	244.773129609434	238.773129609434	232.773129609434	227.773129609434	222.773129609434	217.773129609434	211.773129609434	205.773129609434	198.773129609434	192.773129609434	186.773129609434	180.773129609434	175.773129609434	170.773129609434	166.773129609434	163.773129609434	160.773129609434	158.773129609434	155.773129609434	150.773129609434	146.773129609434	141.773129609434	137.773129609434	134.773129609434	131.773129609434	128.773129609434	125.773129609434	121.773129609434	118.773129609434	115.773129609434	112.773129609434	108.773129609434	105.773129609434	101.773129609434	96.7731296094342	91.7731296094342	84.7731296094342	78.7731296094342	72.7731296094342	67.7731296094342	62.7731296094342	56.7731296094342	50.7731296094342	44.7731296094342	38.7731296094342	26.7731296094342	12.7731296094342	7.96036222047928	7.02136049143255	6.18991565396839	5.50536786224002	4.99174007919327	4.62758487981760	4.38310582780337	4.23297566605595	4.15944270646125	4.14580428154473	4.18260757536016	4.26764962348958	4.39805766307743	4.56079007356568	4.73680615398383	4.90796084228678	5.06137277106241	5.18593563688017	5.27530810893577	5.33730335783457	5.38230614273069	5.41719163606627	5.44288601720198	5.45981233276179	5.47007534835934	5.47746154859803	5.48537620500404	5.49253424766782	5.49488355690309	5.48940369427795	5.47884779530718	5.46791159868183
-9999	-9999	-9999	-9999	-9999	-9999	-9999	-9999	-9999	-9999	-9999	-9999	-9999	-9999	-9999	-9999	-9999	-9999	-9999	-9999	-9999	-9999	-9999	-9999	-9999	-9999	-9999	-9999	-9999	-9999	-9999	-9999	-9999	-9999	-9999	-9999	-9999	-9999	-9999	-9999	-9999	-9999	-9999	-9999	-9999	-9999	-9999	-9999	-9999	-9999	-9999	-9999	-9999	-9999	-9999	-9999	-9999	-9999	-9999	-9999	-9999	-9999	-9999	-9999	-9999	-9999	-9999	-9999	-9999	-9999	-9999	-9999	-9999	-9999	-9999	-9999	-9999	-9999	-9999	-9999	-9999	-9999	-9999	-9999	-9999	-9999	-9999	-9999	-9999	-9999	-9999	-9999	-9999	-9999	-9999	-9999	-9999	-9999	-9999	-9999	-9999	-9999	-9999	-9999	-9999	-9999	-9999	-9999	-9999	-9999	-9999	-9999	-9999	-9999	-9999	-9999	-9999	-9999	-9999	-9999	-9999	-9999	-9999	-9999	-9999	-9999	-9999	-9999	-9999	-9999	-9999	-9999	-9999	-9999	-9999	-9999	407.773129609434	406.773129609434	405.773129609434	404.773129609434	403.773129609434	403.773129609434	402.773129609434	402.773129609434	402.773129609434	403.773129609434	404.773129609434	406.773129609434	407.773129609434	408.773129609434	408.773129609434	408.773129609434	405.773129609434	402.773129609434	397.773129609434	391.773129609434	385.773129609434	380.773129609434	375.773129609434	370.773129609434	366.773129609434	362.773129609434	357.773129609434	351.773129609434	344.773129609434	337.773129609434	331.773129609434	326.773129609434	321.773129609434	316.773129609434	311.773129609434	306.773129609434	301.773129609434	296.773129609434	290.773129609434	284.773129609434	279.773129609434	275.773129609434	270.773129609434	265.773129609434	260.773129609434	255.773129609434	251.773129609434	246.773129609434	240.773129609434	234.773129609434	229.773129609434	224.773129609434	219.773129609434	214.773129609434	208.773129609434	201.773129609434	194.773129609434	188.773129609434	182.773129609434	177.773129609434	171.773129609434	166.773129609434	162.773129609434	159.773129609434	156.773129609434	154.773129609434	150.773129609434	146.773129609434	141.773129609434	137.773129609434	132.773129609434	129.773129609434	126.773129609434	124.773129609434	121.773129609434	118.773129609434	115.773129609434	112.773129609434	108.773129609434	105.773129609434	101.773129609434	96.7731296094342	91.7731296094342	86.7731296094342	79.7731296094342	73.7731296094342	68.7731296094342	63.7731296094342	58.7731296094342	52.7731296094342	46.7731296094342	41.7731296094342	35.7731296094342	24.7731296094342	12.7731296094342	7.26501406664491	6.46986202648249	5.82844387484045	5.31770440025889	4.91797020338997	4.61969505955535	4.41516749283581	4.29376613265162	4.23993713499428	4.23802003644157	4.28089119310501	4.36996378062984	4.50562882521547	4.67389329991308	4.85227835822388	5.01976465127686	5.16382015406433	5.27477296497214	5.34793009783174	5.39338634061037	5.42391400988876	5.44791375061288	5.46637592086479	5.47961286879662	5.48885210504137	5.49623630271292	5.50357884113188	5.50888282394986	5.50790349662239	5.49757141527197	5.48133127428776	5.46481947888643
-9999	-9999	-9999	-9999	-9999	-9999	-9999	-9999	-9999	-9999	-9999	-9999	-9999	-9999	-9999	-9999	-9999	-9999	-9999	-9999	-9999	-9999	-9999	-9999	-9999	-9999	-9999	-9999	-9999	-9999	-9999	-9999	-9999	-9999	-9999	-9999	-9999	-9999	-9999	-9999	-9999	-9999	-9999	-9999	-9999	-9999	-9999	-9999	-9999	-9999	-9999	-9999	-9999	-9999	-9999	-9999	-9999	-9999	-9999	-9999	-9999	-9999	-9999	-9999	-9999	-9999	-9999	-9999	-9999	-9999	-9999	-9999	-9999	-9999	-9999	-9999	-9999	-9999	-9999	-9999	-9999	-9999	-9999	-9999	-9999	-9999	-9999	-9999	-9999	-9999	-9999	-9999	-9999	-9999	-9999	-9999	-9999	-9999	-9999	-9999	-9999	-9999	-9999	-9999	-9999	-9999	-9999	-9999	-9999	-9999	-9999	-9999	-9999	-9999	-9999	-9999	-9999	-9999	-9999	-9999	-9999	-9999	-9999	-9999	-9999	-9999	-9999	-9999	-9999	-9999	-9999	-9999	-9999	408.773129609434	408.773129609434	407.773129609434	406.773129609434	405.773129609434	404.773129609434	403.773129609434	402.773129609434	400.773129609434	399.773129609434	399.773129609434	399.773129609434	400.773129609434	402.773129609434	403.773129609434	405.773129609434	406.773129609434	406.773129609434	406.773129609434	404.773129609434	400.773129609434	395.773129609434	389.773129609434	383.773129609434	378.773129609434	373.773129609434	368.773129609434	364.773129609434	359.773129609434	353.773129609434	346.773129609434	339.773129609434	332.773129609434	326.773129609434	321.773129609434	317.773129609434	312.773129609434	307.773129609434	303.773129609434	297.773129609434	292.773129609434	286.773129609434	280.773129609434	275.773129609434	272.773129609434	268.773129609434	263.773129609434	257.773129609434	253.773129609434	248.773129609434	243.773129609434	237.773129609434	231.773129609434	226.773129609434	221.773129609434	216.773129609434	211.773129609434	205.773129609434	198.773129609434	191.773129609434	185.773129609434	179.773129609434	174.773129609434	168.773129609434	163.773129609434	159.773129609434	156.773129609434	153.773129609434	150.773129609434	146.773129609434	141.773129609434	136.773129609434	132.773129609434	128.773129609434	125.773129609434	122.773129609434	120.773129609434	117.773129609434	115.773129609434	112.773129609434	108.773129609434	104.773129609434	100.773129609434	96.7731296094342	91.7731296094342	86.7731296094342	80.7731296094342	74.7731296094342	69.7731296094342	64.7731296094342	59.7731296094342	54.7731296094342	48.7731296094342	42.7731296094342	37.7731296094342	31.7731296094342	22.7731296094342	11.7731296094342	6.70046545480892	6.02692721874969	5.54073421030289	5.17249158443758	4.87017785693246	4.63349721852649	4.47159813940233	4.38442189402200	4.35630292101849	4.37050882330236	4.42054047859665	4.51013203943688	4.64192722396561	4.80271929090329	4.96995057840201	5.12275018051104	5.25002418209289	5.34397254536616	5.40140556425629	5.43282513851339	5.45120934730651	5.46526637512577	5.47646663860206	5.48557630571659	5.49328886098937	5.50022510547928	5.50672276304817	5.51022980169285	5.50648938850584	5.49250795648014	5.47224384346074	5.45199432125917
-9999	-9999	-9999	-9999	-9999	-9999	-9999	-9999	-9999	-9999	-9999	-9999	-9999	-9999	-9999	-9999	-9999	-9999	-9999	-9999	-9999	-9999	-9999	-9999	-9999	-9999	-9999	-9999	-9999	-9999	-9999	-9999	-9999	-9999	-9999	-9999	-9999	-9999	-9999	-9999	-9999	-9999	-9999	-9999	-9999	-9999	-9999	-9999	-9999	-9999	-9999	-9999	-9999	-9999	-9999	-9999	-9999	-9999	-9999	-9999	-9999	-9999	-9999	-9999	-9999	-9999	-9999	-9999	-9999	-9999	-9999	-9999	-9999	-9999	-9999	-9999	-9999	-9999	-9999	-9999	-9999	-9999	-9999	-9999	-9999	-9999	-9999	-9999	-9999	-9999	-9999	-9999	-9999	-9999	-9999	-9999	-9999	-9999	-9999	-9999	-9999	-9999	-9999	-9999	-9999	-9999	-9999	-9999	-9999	-9999	-9999	-9999	-9999	-9999	-9999	-9999	-9999	-9999	-9999	-9999	-9999	-9999	-9999	-9999	-9999	-9999	-9999	-9999	-9999	-9999	-9999	-9999	-9999	408.773129609434	407.773129609434	406.773129609434	405.773129609434	404.773129609434	402.773129609434	401.773129609434	399.773129609434	397.773129609434	396.773129609434	396.773129609434	396.773129609434	397.773129609434	399.773129609434	401.773129609434	403.773129609434	404.773129609434	404.773129609434	404.773129609434	402.773129609434	398.773129609434	394.773129609434	388.773129609434	381.773129609434	376.773129609434	371.773129609434	366.773129609434	361.773129609434	355.773129609434	348.773129609434	341.773129609434	334.773129609434	327.773129609434	321.773129609434	316.773129609434	313.773129609434	308.773129609434	304.773129609434	299.773129609434	293.773129609434	288.773129609434	282.773129609434	276.773129609434	272.773129609434	269.773129609434	265.773129609434	260.773129609434	255.773129609434	250.773129609434	245.773129609434	240.773129609434	234.773129609434	228.773129609434	223.773129609434	218.773129609434	213.773129609434	208.773129609434	202.773129609434	195.773129609434	188.773129609434	181.773129609434	176.773129609434	170.773129609434	165.773129609434	160.773129609434	156.773129609434	153.773129609434	149.773129609434	147.773129609434	143.773129609434	137.773129609434	132.773129609434	127.773129609434	124.773129609434	120.773129609434	117.773129609434	115.773129609434	113.773129609434	111.773129609434	108.773129609434	103.773129609434	99.7731296094342	95.7731296094342	90.7731296094342	85.7731296094342	80.7731296094342	75.7731296094342	70.7731296094342	65.7731296094342	60.7731296094342	55.7731296094342	50.7731296094342	44.7731296094342	39.7731296094342	33.7731296094342	28.7731296094342	19.7731296094342	7.26151921762209	6.41807615610277	5.80892304928243	5.39656356993499	5.09515290882553	4.84184587381508	4.64224580534080	4.51443414374707	4.46279931782026	4.46851915130751	4.51100025738021	4.58062235291896	4.67873825851351	4.80604869375034	4.95159702972473	5.09754942742241	5.22741598295098	5.33245661013665	5.40654244615536	5.44760047445390	5.46560323388838	5.47270005391238	5.47715262229360	5.48063280429619	5.48414599911751	5.48805036332596	5.49205681086100	5.49563593814315	5.49606791269898	5.48934066653979	5.47270898141042	5.45037008660087	5.42885687297754
-9999	-9999	-9999	-9999	-9999	-9999	-9999	-9999	-9999	-9999	-9999	-9999	-9999	-9999	-9999	-9999	-9999	-9999	-9999	-9999	-9999	-9999	-9999	-9999	-9999	-9999	-9999	-9999	-9999	-9999	-9999	-9999	-9999	-9999	-9999	-9999	-9999	-9999	-9999	-9999	-9999	-9999	-9999	-9999	-9999	-9999	-9999	-9999	-9999	-9999	-9999	-9999	-9999	-9999	-9999	-9999	-9999	-9999	-9999	-9999	-9999	-9999	-9999	-9999	-9999	-9999	-9999	-9999	-9999	-9999	-9999	-9999	-9999	-9999	-9999	-9999	-9999	-9999	-9999	-9999	-9999	-9999	-9999	-9999	-9999	-9999	-9999	-9999	-9999	-9999	-9999	-9999	-9999	-9999	-9999	-9999	-9999	-9999	-9999	-9999	-9999	-9999	-9999	-9999	-9999	-9999	-9999	-9999	-9999	-9999	-9999	-9999	-9999	-9999	-9999	-9999	-9999	-9999	-9999	-9999	-9999	-9999	-9999	-9999	-9999	-9999	-9999	-9999	-9999	-9999	-9999	-9999	407.773129609434	407.773129609434	406.773129609434	405.773129609434	404.773129609434	402.773129609434	400.773129609434	398.773129609434	396.773129609434	394.773129609434	393.773129609434	393.773129609434	393.773129609434	394.773129609434	396.773129609434	398.773129609434	400.773129609434	401.773129609434	402.773129609434	401.773129609434	399.773129609434	396.773129609434	392.773129609434	386.773129609434	379.773129609434	374.773129609434	369.773129609434	363.773129609434	358.773129609434	352.773129609434	345.773129609434	337.773129609434	329.773129609434	323.773129609434	317.773129609434	313.773129609434	309.773129609434	304.773129609434	299.773129609434	294.773129609434	289.773129609434	284.773129609434	278.773129609434	273.773129609434	269.773129609434	266.773129609434	263.773129609434	258.773129609434	253.773129609434	248.773129609434	242.773129609434	237.773129609434	231.773129609434	225.773129609434	220.773129609434	215.773129609434	210.773129609434	205.773129609434	199.773129609434	192.773129609434	184.773129609434	178.773129609434	172.773129609434	167.773129609434	162.773129609434	157.773129609434	153.773129609434	150.773129609434	146.773129609434	143.773129609434	139.773129609434	133.773129609434	128.773129609434	123.773129609434	120.773129609434	116.773129609434	113.773129609434	111.773129609434	109.773129609434	107.773129609434	104.773129609434	99.7731296094342	95.7731296094342	90.7731296094342	85.7731296094342	81.7731296094342	75.7731296094342	71.7731296094342	66.7731296094342	61.7731296094342	56.7731296094342	51.7731296094342	45.7731296094342	40.7731296094342	34.7731296094342	29.7731296094342	24.7731296094342	17.7731296094342	7.17046301793844	6.36073627978701	5.77230897166015	5.37021401500975	5.07589699223967	4.83271025790299	4.64919679621354	4.54574187043338	4.52644700372774	4.56781164952380	4.64412596233832	4.74036092046810	4.85216832599000	4.97530259162691	5.10178332490988	5.22142679870576	5.32468411962713	5.40559409971600	5.45940557393481	5.48481292410187	5.49074580222945	5.48798191685327	5.48387244629962	5.47996036235020	5.47719242654244	5.47574267816213	5.47501243424338	5.47420105153526	5.47076976509824	5.46115441145918	5.44298309891042	5.42040435359015	5.39976027025389
-9999	-9999	-9999	-9999	-9999	-9999	-9999	-9999	-9999	-9999	-9999	-9999	-9999	-9999	-9999	-9999	-9999	-9999	-9999	-9999	-9999	-9999	-9999	-9999	-9999	-9999	-9999	-9999	-9999	-9999	-9999	-9999	-9999	-9999	-9999	-9999	-9999	-9999	-9999	-9999	-9999	-9999	-9999	-9999	-9999	-9999	-9999	-9999	-9999	-9999	-9999	-9999	-9999	-9999	-9999	-9999	-9999	-9999	-9999	-9999	-9999	-9999	-9999	-9999	-9999	-9999	-9999	-9999	-9999	-9999	-9999	-9999	-9999	-9999	-9999	-9999	-9999	-9999	-9999	-9999	-9999	-9999	-9999	-9999	-9999	-9999	-9999	-9999	-9999	-9999	-9999	-9999	-9999	-9999	-9999	-9999	-9999	-9999	-9999	-9999	-9999	-9999	-9999	-9999	-9999	-9999	-9999	-9999	-9999	-9999	-9999	-9999	-9999	-9999	-9999	-9999	-9999	-9999	-9999	-9999	-9999	-9999	-9999	-9999	-9999	-9999	-9999	-9999	-9999	-9999	-9999	-9999	406.773129609434	405.773129609434	404.773129609434	403.773129609434	402.773129609434	400.773129609434	397.773129609434	394.773129609434	392.773129609434	390.773129609434	389.773129609434	389.773129609434	390.773129609434	392.773129609434	394.773129609434	395.773129609434	397.773129609434	398.773129609434	399.773129609434	398.773129609434	397.773129609434	394.773129609434	390.773129609434	384.773129609434	377.773129609434	371.773129609434	366.773129609434	360.773129609434	355.773129609434	349.773129609434	341.773129609434	333.773129609434	326.773129609434	319.773129609434	314.773129609434	310.773129609434	306.773129609434	300.773129609434	295.773129609434	290.773129609434	285.773129609434	280.773129609434	275.773129609434	271.773129609434	267.773129609434	264.773129609434	260.773129609434	255.773129609434	250.773129609434	245.773129609434	239.773129609434	234.773129609434	228.773129609434	222.773129609434	217.773129609434	212.773129609434	207.773129609434	201.773129609434	195.773129609434	188.773129609434	181.773129609434	175.773129609434	169.773129609434	163.773129609434	158.773129609434	153.773129609434	150.773129609434	146.773129609434	143.773129609434	139.773129609434	135.773129609434	130.773129609434	124.773129609434	119.773129609434	115.773129609434	112.773129609434	110.773129609434	108.773129609434	105.773129609434	103.773129609434	100.773129609434	96.7731296094342	91.7731296094342	86.7731296094342	82.7731296094342	77.7731296094342	72.7731296094342	67.7731296094342	63.7731296094342	58.7731296094342	53.7731296094342	47.7731296094342	41.7731296094342	35.7731296094342	29.7731296094342	25.7731296094342	21.7731296094342	16.7731296094342	7.17361954657007	6.40119599486564	5.81974180526684	5.40383635344561	5.09308279331976	4.84460994852151	4.66770013331710	4.58105685346281	4.58627036748243	4.65592279198963	4.76020876552903	4.87903822039097	5.00203638261148	5.11967306861457	5.22677658383629	5.32074650836568	5.39889278465196	5.45786077323266	5.49407429748750	5.50677699111763	5.50359167145599	5.49365251935805	5.48316768133178	5.47338547256660	5.46504704024151	5.45827868403544	5.45259185612721	5.44732798379306	5.44034919868955	5.42864492743246	5.41026209001554	5.38902836330640	5.37071605053865
-9999	-9999	-9999	-9999	-9999	-9999	-9999	-9999	-9999	-9999	-9999	-9999	-9999	-9999	-9999	-9999	-9999	-9999	-9999	-9999	-9999	-9999	-9999	-9999	-9999	-9999	-9999	-9999	-9999	-9999	-9999	-9999	-9999	-9999	-9999	-9999	-9999	-9999	-9999	-9999	-9999	-9999	-9999	-9999	-9999	-9999	-9999	-9999	-9999	-9999	-9999	-9999	-9999	-9999	-9999	-9999	-9999	-9999	-9999	-9999	-9999	-9999	-9999	-9999	-9999	-9999	-9999	-9999	-9999	-9999	-9999	-9999	-9999	-9999	-9999	-9999	-9999	-9999	-9999	-9999	-9999	-9999	-9999	-9999	-9999	-9999	-9999	-9999	-9999	-9999	-9999	-9999	-9999	-9999	-9999	-9999	-9999	-9999	-9999	-9999	-9999	-9999	-9999	-9999	-9999	-9999	-9999	-9999	-9999	-9999	-9999	-9999	-9999	-9999	-9999	-9999	-9999	-9999	-9999	-9999	-9999	-9999	-9999	-9999	-9999	-9999	-9999	-9999	-9999	-9999	-9999	403.773129609434	404.773129609434	403.773129609434	401.773129609434	400.773129609434	399.773129609434	397.773129609434	394.773129609434	390.773129609434	388.773129609434	386.773129609434	385.773129609434	386.773129609434	387.773129609434	389.773129609434	390.773129609434	392.773129609434	393.773129609434	394.773129609434	395.773129609434	395.773129609434	393.773129609434	391.773129609434	388.773129609434	382.773129609434	375.773129609434	369.773129609434	363.773129609434	357.773129609434	352.773129609434	345.773129609434	338.773129609434	329.773129609434	323.773129609434	317.773129609434	312.773129609434	307.773129609434	302.773129609434	297.773129609434	291.773129609434	285.773129609434	281.773129609434	276.773129609434	273.773129609434	269.773129609434	265.773129609434	261.773129609434	257.773129609434	252.773129609434	247.773129609434	242.773129609434	236.773129609434	230.773129609434	224.773129609434	218.773129609434	213.773129609434	208.773129609434	203.773129609434	197.773129609434	191.773129609434	184.773129609434	178.773129609434	171.773129609434	165.773129609434	159.773129609434	154.773129609434	149.773129609434	146.773129609434	143.773129609434	139.773129609434	136.773129609434	131.773129609434	126.773129609434	120.773129609434	116.773129609434	111.773129609434	108.773129609434	106.773129609434	104.773129609434	102.773129609434	100.773129609434	96.7731296094342	92.7731296094342	88.7731296094342	83.7731296094342	78.7731296094342	73.7731296094342	68.7731296094342	64.7731296094342	60.7731296094342	55.7731296094342	50.7731296094342	44.7731296094342	38.7731296094342	31.7731296094342	25.7731296094342	22.7731296094342	18.7731296094342	14.7731296094342	7.16490215607384	6.43822038244165	5.87184379407737	5.44902478770980	5.12739238485547	4.87733863341134	4.70723657450260	4.63227009218522	4.65127795897983	4.73539284882083	4.85342956195940	4.98261826870103	5.10860450940554	5.21834935395847	5.30861763011084	5.38195785671251	5.44037162349828	5.48249797727734	5.50584597912187	5.51013181356447	5.50163236622855	5.48780625538194	5.47369504973969	5.46024325125472	5.44798374315233	5.43711004002067	5.42747628781073	5.41879028098172	5.40940126408791	5.39685701013553	5.37959113686829	5.36088462955120	5.34564901588410
-9999	-9999	-9999	-9999	-9999	-9999	-9999	-9999	-9999	-9999	-9999	-9999	-9999	-9999	-9999	-9999	-9999	-9999	-9999	-9999	-9999	-9999	-9999	-9999	-9999	-9999	-9999	-9999	-9999	-9999	-9999	-9999	-9999	-9999	-9999	-9999	-9999	-9999	-9999	-9999	-9999	-9999	-9999	-9999	-9999	-9999	-9999	-9999	-9999	-9999	-9999	-9999	-9999	-9999	-9999	-9999	-9999	-9999	-9999	-9999	-9999	-9999	-9999	-9999	-9999	-9999	-9999	-9999	-9999	-9999	-9999	-9999	-9999	-9999	-9999	-9999	-9999	-9999	-9999	-9999	-9999	-9999	-9999	-9999	-9999	-9999	-9999	-9999	-9999	-9999	-9999	-9999	-9999	-9999	-9999	-9999	-9999	-9999	-9999	-9999	-9999	-9999	-9999	-9999	-9999	-9999	-9999	-9999	-9999	-9999	-9999	-9999	-9999	-9999	-9999	-9999	-9999	-9999	-9999	-9999	-9999	-9999	-9999	-9999	-9999	-9999	-9999	-9999	-9999	399.773129609434	400.773129609434	401.773129609434	401.773129609434	400.773129609434	398.773129609434	397.773129609434	395.773129609434	393.773129609434	390.773129609434	386.773129609434	383.773129609434	382.773129609434	382.773129609434	383.773129609434	384.773129609434	385.773129609434	387.773129609434	388.773129609434	389.773129609434	390.773129609434	390.773129609434	390.773129609434	389.773129609434	388.773129609434	385.773129609434	379.773129609434	372.773129609434	366.773129609434	360.773129609434	354.773129609434	348.773129609434	342.773129609434	334.773129609434	327.773129609434	320.773129609434	315.773129609434	309.773129609434	304.773129609434	299.773129609434	293.773129609434	287.773129609434	281.773129609434	277.773129609434	274.773129609434	270.773129609434	267.773129609434	263.773129609434	258.773129609434	253.773129609434	249.773129609434	243.773129609434	238.773129609434	231.773129609434	225.773129609434	219.773129609434	214.773129609434	209.773129609434	204.773129609434	198.773129609434	193.773129609434	186.773129609434	180.773129609434	173.773129609434	166.773129609434	160.773129609434	154.773129609434	149.773129609434	145.773129609434	141.773129609434	138.773129609434	135.773129609434	131.773129609434	127.773129609434	122.773129609434	117.773129609434	113.773129609434	108.773129609434	105.773129609434	103.773129609434	102.773129609434	99.7731296094342	96.7731296094342	93.7731296094342	88.7731296094342	84.7731296094342	80.7731296094342	76.7731296094342	71.7731296094342	66.7731296094342	61.7731296094342	57.7731296094342	52.7731296094342	46.7731296094342	40.7731296094342	34.7731296094342	28.7731296094342	23.7731296094342	19.7731296094342	17.7731296094342	13.7731296094342	7.13300170992647	6.44803139480723	5.90273950059666	5.48550524563068	5.16643719454869	4.92460810116628	4.76576751416497	4.70041318118779	4.72481213802580	4.81110937611005	4.92942023288663	5.05691954833061	5.17784166494613	5.27788873261005	5.35474730193483	5.41317407691804	5.45726781683523	5.48707434560791	5.50127669601639	5.50015874504882	5.48876411471735	5.47299180434035	5.45683546918560	5.44105907410288	5.42610888428552	5.41231950567430	5.39991388495747	5.38898272378236	5.37830159545879	5.36587021814351	5.35040489231202	5.33455199213849	5.32227980099961
-9999	-9999	-9999	-9999	-9999	-9999	-9999	-9999	-9999	-9999	-9999	-9999	-9999	-9999	-9999	-9999	-9999	-9999	-9999	-9999	-9999	-9999	-9999	-9999	-9999	-9999	-9999	-9999	-9999	-9999	-9999	-9999	-9999	-9999	-9999	-9999	-9999	-9999	-9999	-9999	-9999	-9999	-9999	-9999	-9999	-9999	-9999	-9999	-9999	-9999	-9999	-9999	-9999	-9999	-9999	-9999	-9999	-9999	-9999	-9999	-9999	-9999	-9999	-9999	-9999	-9999	-9999	-9999	-9999	-9999	-9999	-9999	-9999	-9999	-9999	-9999	-9999	-9999	-9999	-9999	-9999	-9999	-9999	-9999	-9999	-9999	-9999	-9999	-9999	-9999	-9999	-9999	-9999	-9999	-9999	-9999	-9999	-9999	-9999	-9999	-9999	-9999	-9999	-9999	-9999	-9999	-9999	-9999	-9999	-9999	-9999	-9999	-9999	-9999	-9999	-9999	-9999	-9999	-9999	-9999	-9999	-9999	-9999	-9999	-9999	-9999	-9999	-9999	-9999	398.773129609434	398.773129609434	399.773129609434	398.773129609434	397.773129609434	395.773129609434	393.773129609434	391.773129609434	389.773129609434	385.773129609434	381.773129609434	379.773129609434	378.773129609434	378.773129609434	379.773129609434	381.773129609434	382.773129609434	383.773129609434	384.773129609434	385.773129609434	385.773129609434	385.773129609434	385.773129609434	385.773129609434	384.773129609434	381.773129609434	375.773129609434	369.773129609434	363.773129609434	356.773129609434	350.773129609434	345.773129609434	339.773129609434	331.773129609434	324.773129609434	318.773129609434	313.773129609434	307.773129609434	302.773129609434	296.773129609434	289.773129609434	283.773129609434	278.773129609434	275.773129609434	271.773129609434	268.773129609434	264.773129609434	260.773129609434	255.773129609434	250.773129609434	245.773129609434	239.773129609434	233.773129609434	227.773129609434	221.773129609434	215.773129609434	209.773129609434	204.773129609434	199.773129609434	194.773129609434	188.773129609434	182.773129609434	175.773129609434	168.773129609434	162.773129609434	155.773129609434	149.773129609434	144.773129609434	140.773129609434	137.773129609434	134.773129609434	131.773129609434	127.773129609434	123.773129609434	118.773129609434	114.773129609434	109.773129609434	106.773129609434	103.773129609434	101.773129609434	99.7731296094342	96.7731296094342	93.7731296094342	89.7731296094342	85.7731296094342	81.7731296094342	77.7731296094342	74.7731296094342	69.7731296094342	64.7731296094342	59.7731296094342	54.7731296094342	49.7731296094342	43.7731296094342	37.7731296094342	31.7731296094342	25.7731296094342	21.7731296094342	18.7731296094342	16.7731296094342	13.7731296094342	7.08418421903718	6.42133680244421	5.89662482379265	5.49832674030873	5.19915406472158	4.97899182655087	4.83907505369762	4.78444339959471	4.80909882202511	4.88833361850550	4.99588486798412	5.11140290667395	5.22045132805266	5.30988738307786	5.37726936240331	5.42646859591610	5.46097370658433	5.48176201056727	5.48896639965591	5.48370818663281	5.47004753528018	5.45256996552891	5.43446893726893	5.41657827199629	5.39949905199150	5.38373640002039	5.36969947933413	5.35766859345489	5.34663681935290	5.33483783940170	5.32109684723924	5.30749147777292	5.29719330401020
-9999	-9999	-9999	-9999	-9999	-9999	-9999	-9999	-9999	-9999	-9999	-9999	-9999	-9999	-9999	-9999	-9999	-9999	-9999	-9999	-9999	-9999	-9999	-9999	-9999	-9999	-9999	-9999	-9999	-9999	-9999	-9999	-9999	-9999	-9999	-9999	-9999	-9999	-9999	-9999	-9999	-9999	-9999	-9999	-9999	-9999	-9999	-9999	-9999	-9999	-9999	-9999	-9999	-9999	-9999	-9999	-9999	-9999	-9999	-9999	-9999	-9999	-9999	-9999	-9999	-9999	-9999	-9999	-9999	-9999	-9999	-9999	-9999	-9999	-9999	-9999	-9999	-9999	-9999	-9999	-9999	-9999	-9999	-9999	-9999	-9999	-9999	-9999	-9999	-9999	-9999	-9999	-9999	-9999	-9999	-9999	-9999	-9999	-9999	-9999	-9999	-9999	-9999	-9999	-9999	-9999	-9999	-9999	-9999	-9999	-9999	-9999	-9999	-9999	-9999	-9999	-9999	-9999	-9999	-9999	-9999	-9999	-9999	-9999	-9999	-9999	-9999	-9999	-9999	-9999	397.773129609434	396.773129609434	395.773129609434	393.773129609434	391.773129609434	389.773129609434	387.773129609434	385.773129609434	381.773129609434	377.773129609434	375.773129609434	374.773129609434	374.773129609434	375.773129609434	377.773129609434	378.773129609434	379.773129609434	380.773129609434	380.773129609434	381.773129609434	381.773129609434	380.773129609434	380.773129609434	379.773129609434	377.773129609434	372.773129609434	366.773129609434	360.773129609434	354.773129609434	348.773129609434	342.773129609434	336.773129609434	329.773129609434	322.773129609434	316.773129609434	311.773129609434	305.773129609434	299.773129609434	293.773129609434	287.773129609434	280.773129609434	276.773129609434	273.773129609434	270.773129609434	266.773129609434	261.773129609434	256.773129609434	251.773129609434	246.773129609434	240.773129609434	235.773129609434	229.773129609434	222.773129609434	216.773129609434	210.773129609434	205.773129609434	200.773129609434	195.773129609434	189.773129609434	183.773129609434	177.773129609434	170.773129609434	163.773129609434	157.773129609434	150.773129609434	144.773129609434	140.773129609434	136.773129609434	133.773129609434	130.773129609434	127.773129609434	123.773129609434	119.773129609434	114.773129609434	110.773129609434	106.773129609434	102.773129609434	100.773129609434	98.7731296094342	96.7731296094342	93.7731296094342	90.7731296094342	86.7731296094342	82.7731296094342	78.7731296094342	74.7731296094342	70.7731296094342	66.7731296094342	61.7731296094342	56.7731296094342	51.7731296094342	46.7731296094342	40.7731296094342	35.7731296094342	29.7731296094342	24.7731296094342	20.7731296094342	17.7731296094342	15.7731296094342	13.7731296094342	7.02875788637124	6.36162867721966	5.85158994216222	5.48197455494701	5.21790607391537	5.03199059799549	4.91910836388752	4.87816680815548	4.90103689474803	4.96766227812085	5.05705342143393	5.15333026141372	5.24572220835305	5.32431371735356	5.38572299538199	5.43042281242292	5.45908841951319	5.47322077962187	5.47459904880442	5.46540496854356	5.44901588591946	5.42901882506559	5.40812095301954	5.38753801796957	5.36832503161924	5.35116280114906	5.33635792921643	5.32408368207622	5.31330477503672	5.30227294319518	5.28976173041414	5.27741687168201	5.26785013556436
-9999	-9999	-9999	-9999	-9999	-9999	-9999	-9999	-9999	-9999	-9999	-9999	-9999	-9999	-9999	-9999	-9999	-9999	-9999	-9999	-9999	-9999	-9999	-9999	-9999	-9999	-9999	-9999	-9999	-9999	-9999	-9999	-9999	-9999	-9999	-9999	-9999	-9999	-9999	-9999	-9999	-9999	-9999	-9999	-9999	-9999	-9999	-9999	-9999	-9999	-9999	-9999	-9999	-9999	-9999	-9999	-9999	-9999	-9999	-9999	-9999	-9999	-9999	-9999	-9999	-9999	-9999	-9999	-9999	-9999	-9999	-9999	-9999	-9999	-9999	-9999	-9999	-9999	-9999	-9999	-9999	-9999	-9999	-9999	-9999	-9999	-9999	-9999	-9999	-9999	-9999	-9999	-9999	-9999	-9999	-9999	-9999	-9999	-9999	-9999	-9999	-9999	-9999	-9999	-9999	-9999	-9999	-9999	-9999	-9999	-9999	-9999	-9999	-9999	-9999	-9999	-9999	-9999	-9999	-9999	-9999	-9999	-9999	-9999	-9999	-9999	-9999	-9999	-9999	396.773129609434	395.773129609434	393.773129609434	391.773129609434	389.773129609434	387.773129609434	385.773129609434	383.773129609434	380.773129609434	377.773129609434	373.773129609434	371.773129609434	370.773129609434	370.773129609434	371.773129609434	372.773129609434	374.773129609434	375.773129609434	376.773129609434	376.773129609434	376.773129609434	376.773129609434	375.773129609434	375.773129609434	375.773129609434	373.773129609434	368.773129609434	363.773129609434	357.773129609434	351.773129609434	345.773129609434	340.773129609434	334.773129609434	327.773129609434	320.773129609434	314.773129609434	309.773129609434	304.773129609434	298.773129609434	291.773129609434	285.773129609434	279.773129609434	274.773129609434	272.773129609434	269.773129609434	264.773129609434	258.773129609434	253.773129609434	247.773129609434	241.773129609434	236.773129609434	231.773129609434	225.773129609434	218.773129609434	212.773129609434	207.773129609434	201.773129609434	196.773129609434	191.773129609434	185.773129609434	179.773129609434	172.773129609434	165.773129609434	158.773129609434	152.773129609434	146.773129609434	140.773129609434	136.773129609434	132.773129609434	129.773129609434	127.773129609434	123.773129609434	120.773129609434	116.773129609434	110.773129609434	105.773129609434	102.773129609434	99.7731296094342	97.7731296094342	95.7731296094342	93.7731296094342	90.7731296094342	86.7731296094342	82.7731296094342	78.7731296094342	74.7731296094342	70.7731296094342	66.7731296094342	62.7731296094342	58.7731296094342	54.7731296094342	48.7731296094342	43.7731296094342	38.7731296094342	33.7731296094342	29.7731296094342	24.7731296094342	20.7731296094342	18.7731296094342	15.7731296094342	13.7731296094342	6.98388271100240	6.29406936922232	5.78927680242238	5.44692910555536	5.22086400888176	5.07328692613766	4.99131953209535	4.96665779492228	4.98849554819852	5.04178533370226	5.11126694661633	5.18623619174116	5.26054488349481	5.32837697019746	5.38530024493241	5.42769889493998	5.45278131941193	5.46215682577780	5.45891579216144	5.44610142396342	5.42661344281930	5.40332020896208	5.37871611578569	5.35466165693424	5.33291727896851	5.31435461187656	5.29895646907375	5.28656965094441	5.27603575952038	5.26560338374165	5.25398784805605	5.24247040233383	5.23319529982205
-9999	-9999	-9999	-9999	-9999	-9999	-9999	-9999	-9999	-9999	-9999	-9999	-9999	-9999	-9999	-9999	-9999	-9999	-9999	-9999	-9999	-9999	-9999	-9999	-9999	-9999	-9999	-9999	-9999	-9999	-9999	-9999	-9999	-9999	-9999	-9999	-9999	-9999	-9999	-9999	-9999	-9999	-9999	-9999	-9999	-9999	-9999	-9999	-9999	-9999	-9999	-9999	-9999	-9999	-9999	-9999	-9999	-9999	-9999	-9999	-9999	-9999	-9999	-9999	-9999	-9999	-9999	-9999	-9999	-9999	-9999	-9999	-9999	-9999	-9999	-9999	-9999	-9999	-9999	-9999	-9999	-9999	-9999	-9999	-9999	-9999	-9999	-9999	-9999	-9999	-9999	-9999	-9999	-9999	-9999	-9999	-9999	-9999	-9999	-9999	-9999	-9999	-9999	-9999	-9999	-9999	-9999	-9999	-9999	-9999	-9999	-9999	-9999	-9999	-9999	-9999	-9999	-9999	-9999	-9999	-9999	-9999	-9999	-9999	-9999	-9999	-9999	-9999	396.773129609434	395.773129609434	393.773129609434	391.773129609434	388.773129609434	386.773129609434	383.773129609434	381.773129609434	379.773129609434	377.773129609434	373.773129609434	370.773129609434	368.773129609434	367.773129609434	367.773129609434	367.773129609434	368.773129609434	370.773129609434	371.773129609434	372.773129609434	373.773129609434	373.773129609434	372.773129609434	371.773129609434	370.773129609434	370.773129609434	369.773129609434	365.773129609434	360.773129609434	355.773129609434	349.773129609434	343.773129609434	338.773129609434	333.773129609434	326.773129609434	319.773129609434	313.773129609434	308.773129609434	302.773129609434	296.773129609434	290.773129609434	284.773129609434	278.773129609434	273.773129609434	271.773129609434	268.773129609434	262.773129609434	256.773129609434	250.773129609434	243.773129609434	238.773129609434	232.773129609434	227.773129609434	221.773129609434	214.773129609434	208.773129609434	203.773129609434	198.773129609434	192.773129609434	187.773129609434	181.773129609434	175.773129609434	168.773129609434	161.773129609434	154.773129609434	147.773129609434	142.773129609434	137.773129609434	133.773129609434	129.773129609434	126.773129609434	123.773129609434	119.773129609434	116.773129609434	111.773129609434	106.773129609434	102.773129609434	98.7731296094342	96.7731296094342	94.7731296094342	92.7731296094342	90.7731296094342	86.7731296094342	82.7731296094342	78.7731296094342	75.7731296094342	71.7731296094342	67.7731296094342	62.7731296094342	59.7731296094342	55.7731296094342	51.7731296094342	46.7731296094342	40.7731296094342	36.7731296094342	32.7731296094342	28.7731296094342	24.7731296094342	21.7731296094342	18.7731296094342	16.7731296094342	13.7731296094342	6.96683784796763	6.24543076273766	5.73338173623805	5.40534945532619	5.20718560664255	5.09293684384210	5.04106456769309	5.03457354828083	5.05874776497640	5.10273461509297	5.15623577441712	5.21309400813514	5.27129317083303	5.32872932408531	5.38053344849297	5.42020527524899	5.44244280627147	5.44853926197017	5.44200726694634	5.42611065718459	5.40336905711427	5.37616603657931	5.34700421323909	5.31858799906346	5.29357319051363	5.27304784946077	5.25653230318604	5.24342018596578	5.23250088436356	5.22220731121462	5.21135417445240	5.20084614761010	5.19229073607740
-9999	-9999	-9999	-9999	-9999	-9999	-9999	-9999	-9999	-9999	-9999	-9999	-9999	-9999	-9999	-9999	-9999	-9999	-9999	-9999	-9999	-9999	-9999	-9999	-9999	-9999	-9999	-9999	-9999	-9999	-9999	-9999	-9999	-9999	-9999	-9999	-9999	-9999	-9999	-9999	-9999	-9999	-9999	-9999	-9999	-9999	-9999	-9999	-9999	-9999	-9999	-9999	-9999	-9999	-9999	-9999	-9999	-9999	-9999	-9999	-9999	-9999	-9999	-9999	-9999	-9999	-9999	-9999	-9999	-9999	-9999	-9999	-9999	-9999	-9999	-9999	-9999	-9999	-9999	-9999	-9999	-9999	-9999	-9999	-9999	-9999	-9999	-9999	-9999	-9999	-9999	-9999	-9999	-9999	-9999	-9999	-9999	-9999	-9999	-9999	-9999	-9999	-9999	-9999	-9999	-9999	-9999	-9999	-9999	-9999	-9999	-9999	-9999	-9999	-9999	-9999	-9999	-9999	-9999	-9999	-9999	-9999	-9999	-9999	-9999	-9999	-9999	-9999	395.773129609434	393.773129609434	391.773129609434	388.773129609434	385.773129609434	382.773129609434	379.773129609434	377.773129609434	375.773129609434	373.773129609434	371.773129609434	368.773129609434	366.773129609434	364.773129609434	364.773129609434	364.773129609434	365.773129609434	366.773129609434	367.773129609434	368.773129609434	369.773129609434	369.773129609434	368.773129609434	367.773129609434	366.773129609434	367.773129609434	365.773129609434	362.773129609434	357.773129609434	352.773129609434	347.773129609434	341.773129609434	337.773129609434	332.773129609434	326.773129609434	320.773129609434	314.773129609434	308.773129609434	302.773129609434	295.773129609434	289.773129609434	283.773129609434	278.773129609434	273.773129609434	270.773129609434	267.773129609434	261.773129609434	254.773129609434	248.773129609434	241.773129609434	234.773129609434	229.773129609434	223.773129609434	217.773129609434	211.773129609434	205.773129609434	200.773129609434	194.773129609434	189.773129609434	183.773129609434	177.773129609434	171.773129609434	164.773129609434	157.773129609434	150.773129609434	144.773129609434	139.773129609434	134.773129609434	130.773129609434	126.773129609434	123.773129609434	119.773129609434	115.773129609434	111.773129609434	107.773129609434	102.773129609434	98.7731296094342	96.7731296094342	94.7731296094342	92.7731296094342	90.7731296094342	87.7731296094342	83.7731296094342	79.7731296094342	75.7731296094342	70.7731296094342	66.7731296094342	63.7731296094342	59.7731296094342	56.7731296094342	53.7731296094342	49.7731296094342	44.7731296094342	39.7731296094342	35.7731296094342	32.7731296094342	28.7731296094342	25.7731296094342	22.7731296094342	19.7731296094342	16.7731296094342	13.7731296094342	6.98237791110446	6.23122477839506	5.70238090408545	5.37236796871762	5.18578945730536	5.09363833942628	5.06596454967132	5.07642897293224	5.10547097722783	5.14501992997989	5.18828351059014	5.23227198453528	5.27779820336708	5.32535793465501	5.37046669142942	5.40570190376891	5.42487199271454	5.42864893197147	5.42001444139158	5.40174826069095	5.37602480085311	5.34491389477845	5.31105310992734	5.27804236324640	5.24947406817061	5.22662403728872	5.20845148234321	5.19381757454015	5.18161116517045	5.17073743528985	5.16035330911771	5.15097619247270	5.14358080884871
-9999	-9999	-9999	-9999	-9999	-9999	-9999	-9999	-9999	-9999	-9999	-9999	-9999	-9999	-9999	-9999	-9999	-9999	-9999	-9999	-9999	-9999	-9999	-9999	-9999	-9999	-9999	-9999	-9999	-9999	-9999	-9999	-9999	-9999	-9999	-9999	-9999	-9999	-9999	-9999	-9999	-9999	-9999	-9999	-9999	-9999	-9999	-9999	-9999	-9999	-9999	-9999	-9999	-9999	-9999	-9999	-9999	-9999	-9999	-9999	-9999	-9999	-9999	-9999	-9999	-9999	-9999	-9999	-9999	-9999	-9999	-9999	-9999	-9999	-9999	-9999	-9999	-9999	-9999	-9999	-9999	-9999	-9999	-9999	-9999	-9999	-9999	-9999	-9999	-9999	-9999	-9999	-9999	-9999	-9999	-9999	-9999	-9999	-9999	-9999	-9999	-9999	-9999	-9999	-9999	-9999	-9999	-9999	-9999	-9999	-9999	-9999	-9999	-9999	-9999	-9999	-9999	-9999	-9999	-9999	-9999	-9999	-9999	-9999	-9999	-9999	-9999	395.773129609434	394.773129609434	391.773129609434	389.773129609434	386.773129609434	383.773129609434	379.773129609434	376.773129609434	373.773129609434	372.773129609434	370.773129609434	368.773129609434	366.773129609434	364.773129609434	362.773129609434	361.773129609434	361.773129609434	362.773129609434	363.773129609434	364.773129609434	364.773129609434	366.773129609434	366.773129609434	365.773129609434	364.773129609434	363.773129609434	363.773129609434	362.773129609434	359.773129609434	355.773129609434	350.773129609434	345.773129609434	340.773129609434	336.773129609434	331.773129609434	326.773129609434	320.773129609434	314.773129609434	308.773129609434	302.773129609434	295.773129609434	288.773129609434	283.773129609434	278.773129609434	273.773129609434	270.773129609434	266.773129609434	260.773129609434	253.773129609434	246.773129609434	239.773129609434	232.773129609434	225.773129609434	219.773129609434	213.773129609434	207.773129609434	202.773129609434	197.773129609434	191.773129609434	185.773129609434	180.773129609434	173.773129609434	167.773129609434	160.773129609434	153.773129609434	146.773129609434	141.773129609434	137.773129609434	132.773129609434	128.773129609434	124.773129609434	120.773129609434	115.773129609434	110.773129609434	106.773129609434	102.773129609434	99.7731296094342	96.7731296094342	93.7731296094342	91.7731296094342	89.7731296094342	87.7731296094342	84.7731296094342	80.7731296094342	76.7731296094342	71.7731296094342	67.7731296094342	62.7731296094342	59.7731296094342	56.7731296094342	53.7731296094342	50.7731296094342	47.7731296094342	42.7731296094342	38.7731296094342	34.7731296094342	31.7731296094342	28.7731296094342	25.7731296094342	22.7731296094342	19.7731296094342	16.7731296094342	13.7731296094342	7.02273297305095	6.25570337316781	5.70953029525213	5.36609031145346	5.17535500406358	5.09073135666044	5.07590562663914	5.09659668989304	5.12874706664530	5.16562906389363	5.20234703575726	5.23753335834207	5.27334842974064	5.31158493070660	5.34865580703484	5.37780024955589	5.39327670399573	5.39507841039159	5.38512861474277	5.36533231515810	5.33753596699869	5.30358703792097	5.26624874727382	5.22983657708823	5.19868511929720	5.17411020487660	5.15440890384511	5.13783270556075	5.12351752158969	5.11112102514534	5.10039147679358	5.09153062896368	5.08489230787848
-9999	-9999	-9999	-9999	-9999	-9999	-9999	-9999	-9999	-9999	-9999	-9999	-9999	-9999	-9999	-9999	-9999	-9999	-9999	-9999	-9999	-9999	-9999	-9999	-9999	-9999	-9999	-9999	-9999	-9999	-9999	-9999	-9999	-9999	-9999	-9999	-9999	-9999	-9999	-9999	-9999	-9999	-9999	-9999	-9999	-9999	-9999	-9999	-9999	-9999	-9999	-9999	-9999	-9999	-9999	-9999	-9999	-9999	-9999	-9999	-9999	-9999	-9999	-9999	-9999	-9999	-9999	-9999	-9999	-9999	-9999	-9999	-9999	-9999	-9999	-9999	-9999	-9999	-9999	-9999	-9999	-9999	-9999	-9999	-9999	-9999	-9999	-9999	-9999	-9999	-9999	-9999	-9999	-9999	-9999	-9999	-9999	-9999	-9999	-9999	-9999	-9999	-9999	-9999	-9999	-9999	-9999	-9999	-9999	-9999	-9999	-9999	-9999	-9999	-9999	-9999	-9999	-9999	-9999	-9999	-9999	-9999	-9999	-9999	-9999	-9999	396.773129609434	394.773129609434	392.773129609434	389.773129609434	386.773129609434	384.773129609434	380.773129609434	377.773129609434	373.773129609434	371.773129609434	369.773129609434	367.773129609434	365.773129609434	363.773129609434	362.773129609434	360.773129609434	359.773129609434	358.773129609434	359.773129609434	359.773129609434	360.773129609434	361.773129609434	362.773129609434	362.773129609434	361.773129609434	360.773129609434	359.773129609434	359.773129609434	358.773129609434	356.773129609434	353.773129609434	349.773129609434	344.773129609434	339.773129609434	335.773129609434	331.773129609434	326.773129609434	321.773129609434	315.773129609434	308.773129609434	302.773129609434	295.773129609434	288.773129609434	283.773129609434	278.773129609434	273.773129609434	270.773129609434	265.773129609434	259.773129609434	251.773129609434	244.773129609434	237.773129609434	229.773129609434	223.773129609434	216.773129609434	210.773129609434	204.773129609434	199.773129609434	194.773129609434	189.773129609434	182.773129609434	176.773129609434	169.773129609434	162.773129609434	156.773129609434	150.773129609434	144.773129609434	139.773129609434	135.773129609434	130.773129609434	126.773129609434	122.773129609434	116.773129609434	111.773129609434	106.773129609434	102.773129609434	98.7731296094342	95.7731296094342	93.7731296094342	90.7731296094342	88.7731296094342	86.7731296094342	84.7731296094342	81.7731296094342	78.7731296094342	73.7731296094342	68.7731296094342	63.7731296094342	59.7731296094342	56.7731296094342	53.7731296094342	51.7731296094342	48.7731296094342	45.7731296094342	41.7731296094342	37.7731296094342	33.7731296094342	30.7731296094342	27.7731296094342	25.7731296094342	22.7731296094342	19.7731296094342	15.7731296094342	12.7731296094342	7.07975308425025	6.32101453239392	5.76527347209082	5.40200362748314	5.19266575846632	5.09857673285403	5.08068858798485	5.10004022302321	5.12960981928976	5.16261347007983	5.19437130860235	5.22350830712724	5.25195427698541	5.28137946019372	5.30929101868782	5.33074012053452	5.34144694600123	5.34092190730502	5.32995114199015	5.30950589590903	5.28110458283195	5.24638113012926	5.20807978223763	5.17082684808964	5.13927605708115	5.11451875453048	5.09408390167843	5.07553531634597	5.05839564845903	5.04334315378009	5.03096955665158	5.02131776641114	5.01424547818683
-9999	-9999	-9999	-9999	-9999	-9999	-9999	-9999	-9999	-9999	-9999	-9999	-9999	-9999	-9999	-9999	-9999	-9999	-9999	-9999	-9999	-9999	-9999	-9999	-9999	-9999	-9999	-9999	-9999	-9999	-9999	-9999	-9999	-9999	-9999	-9999	-9999	-9999	-9999	-9999	-9999	-9999	-9999	-9999	-9999	-9999	-9999	-9999	-9999	-9999	-9999	-9999	-9999	-9999	-9999	-9999	-9999	-9999	-9999	-9999	-9999	-9999	-9999	-9999	-9999	-9999	-9999	-9999	-9999	-9999	-9999	-9999	-9999	-9999	-9999	-9999	-9999	-9999	-9999	-9999	-9999	-9999	-9999	-9999	-9999	-9999	-9999	-9999	-9999	-9999	-9999	-9999	-9999	-9999	-9999	-9999	-9999	-9999	-9999	-9999	-9999	-9999	-9999	-9999	-9999	-9999	-9999	-9999	-9999	-9999	-9999	-9999	-9999	-9999	-9999	-9999	-9999	-9999	-9999	-9999	-9999	-9999	-9999	-9999	-9999	398.773129609434	396.773129609434	393.773129609434	390.773129609434	387.773129609434	384.773129609434	381.773129609434	378.773129609434	375.773129609434	372.773129609434	369.773129609434	366.773129609434	364.773129609434	362.773129609434	361.773129609434	359.773129609434	358.773129609434	357.773129609434	356.773129609434	355.773129609434	356.773129609434	357.773129609434	358.773129609434	358.773129609434	358.773129609434	357.773129609434	357.773129609434	356.773129609434	356.773129609434	355.773129609434	354.773129609434	351.773129609434	348.773129609434	343.773129609434	339.773129609434	335.773129609434	330.773129609434	326.773129609434	321.773129609434	315.773129609434	309.773129609434	302.773129609434	295.773129609434	288.773129609434	283.773129609434	278.773129609434	273.773129609434	269.773129609434	264.773129609434	257.773129609434	250.773129609434	242.773129609434	235.773129609434	227.773129609434	220.773129609434	213.773129609434	207.773129609434	201.773129609434	196.773129609434	191.773129609434	186.773129609434	180.773129609434	172.773129609434	165.773129609434	159.773129609434	152.773129609434	147.773129609434	142.773129609434	137.773129609434	133.773129609434	128.773129609434	124.773129609434	119.773129609434	113.773129609434	107.773129609434	102.773129609434	98.7731296094342	95.7731296094342	92.7731296094342	90.7731296094342	87.7731296094342	85.7731296094342	83.7731296094342	82.7731296094342	79.7731296094342	75.7731296094342	70.7731296094342	65.7731296094342	60.7731296094342	56.7731296094342	54.7731296094342	51.7731296094342	49.7731296094342	47.7731296094342	43.7731296094342	40.7731296094342	36.7731296094342	32.7731296094342	29.7731296094342	26.7731296094342	24.7731296094342	22.7731296094342	18.7731296094342	15.7731296094342	12.7731296094342	7.14698676805259	6.41263971452767	5.85336267223983	5.46722787497204	5.23055117683626	5.11575300949425	5.08372779610444	5.09339868583987	5.11604546026869	5.14389325055737	5.17133073327709	5.19584394885501	5.21801630157426	5.23838186399149	5.25557516636250	5.26711011090958	5.27079489292134	5.26610781433616	5.25308945594050	5.23206149243615	5.20417957230138	5.17076835213627	5.13429905623135	5.09918642069706	5.06986407336960	5.04687019844645	5.02684753648629	5.00658440450075	4.98612047569119	4.96741354895243	4.95215552049980	4.94046598606078	4.93193492281852
-9999	-9999	-9999	-9999	-9999	-9999	-9999	-9999	-9999	-9999	-9999	-9999	-9999	-9999	-9999	-9999	-9999	-9999	-9999	-9999	-9999	-9999	-9999	-9999	-9999	-9999	-9999	-9999	-9999	-9999	-9999	-9999	-9999	-9999	-9999	-9999	-9999	-9999	-9999	-9999	-9999	-9999	-9999	-9999	-9999	-9999	-9999	-9999	-9999	-9999	-9999	-9999	-9999	-9999	-9999	-9999	-9999	-9999	-9999	-9999	-9999	-9999	-9999	-9999	-9999	-9999	-9999	-9999	-9999	-9999	-9999	-9999	-9999	-9999	-9999	-9999	-9999	-9999	-9999	-9999	-9999	-9999	-9999	-9999	-9999	-9999	-9999	-9999	-9999	-9999	-9999	-9999	-9999	-9999	-9999	-9999	-9999	-9999	-9999	-9999	-9999	-9999	-9999	-9999	-9999	-9999	-9999	-9999	-9999	-9999	-9999	-9999	-9999	-9999	-9999	-9999	-9999	-9999	-9999	-9999	-9999	-9999	-9999	-9999	-9999	398.773129609434	395.773129609434	391.773129609434	388.773129609434	385.773129609434	382.773129609434	379.773129609434	376.773129609434	373.773129609434	370.773129609434	367.773129609434	364.773129609434	361.773129609434	359.773129609434	358.773129609434	356.773129609434	355.773129609434	354.773129609434	353.773129609434	352.773129609434	353.773129609434	354.773129609434	354.773129609434	354.773129609434	354.773129609434	353.773129609434	353.773129609434	353.773129609434	353.773129609434	352.773129609434	351.773129609434	349.773129609434	346.773129609434	342.773129609434	338.773129609434	334.773129609434	330.773129609434	326.773129609434	321.773129609434	315.773129609434	308.773129609434	301.773129609434	294.773129609434	288.773129609434	282.773129609434	278.773129609434	273.773129609434	268.773129609434	262.773129609434	255.773129609434	248.773129609434	241.773129609434	233.773129609434	225.773129609434	218.773129609434	211.773129609434	205.773129609434	199.773129609434	194.773129609434	189.773129609434	183.773129609434	176.773129609434	169.773129609434	162.773129609434	155.773129609434	149.773129609434	144.773129609434	140.773129609434	135.773129609434	130.773129609434	126.773129609434	121.773129609434	116.773129609434	110.773129609434	103.773129609434	98.7731296094342	95.7731296094342	92.7731296094342	89.7731296094342	87.7731296094342	85.7731296094342	83.7731296094342	81.7731296094342	79.7731296094342	77.7731296094342	72.7731296094342	67.7731296094342	63.7731296094342	58.7731296094342	54.7731296094342	51.7731296094342	49.7731296094342	47.7731296094342	44.7731296094342	41.7731296094342	38.7731296094342	34.7731296094342	31.7731296094342	27.7731296094342	25.7731296094342	23.7731296094342	21.7731296094342	17.7731296094342	14.7731296094342	12.7731296094342	7.21898455568816	6.50622802144043	5.94180368393659	5.53214789457556	5.26770910821902	5.13152802036631	5.08466996414601	5.08429969985048	5.10014178067888	5.12321048059765	5.14670649495043	5.16668680518343	5.18206467884546	5.19193796786998	5.19602805023300	5.19442415081899	5.18722938926186	5.17459632352113	5.15669425304326	5.13382947228882	5.10671530051286	5.07615385366666	5.04399515800548	5.01386552048641	4.98938934304261	4.97018983322058	4.95188900418021	4.93039665323818	4.90638949803130	4.88335648340581	4.86435189437336	4.84988244075835	4.83959699401728
-9999	-9999	-9999	-9999	-9999	-9999	-9999	-9999	-9999	-9999	-9999	-9999	-9999	-9999	-9999	-9999	-9999	-9999	-9999	-9999	-9999	-9999	-9999	-9999	-9999	-9999	-9999	-9999	-9999	-9999	-9999	-9999	-9999	-9999	-9999	-9999	-9999	-9999	-9999	-9999	-9999	-9999	-9999	-9999	-9999	-9999	-9999	-9999	-9999	-9999	-9999	-9999	-9999	-9999	-9999	-9999	-9999	-9999	-9999	-9999	-9999	-9999	-9999	-9999	-9999	-9999	-9999	-9999	-9999	-9999	-9999	-9999	-9999	-9999	-9999	-9999	-9999	-9999	-9999	-9999	-9999	-9999	-9999	-9999	-9999	-9999	-9999	-9999	-9999	-9999	-9999	-9999	-9999	-9999	-9999	-9999	-9999	-9999	-9999	-9999	-9999	-9999	-9999	-9999	-9999	-9999	-9999	-9999	-9999	-9999	-9999	-9999	-9999	-9999	-9999	-9999	-9999	-9999	-9999	-9999	-9999	-9999	-9999	-9999	399.773129609434	398.773129609434	394.773129609434	390.773129609434	386.773129609434	383.773129609434	379.773129609434	377.773129609434	374.773129609434	371.773129609434	368.773129609434	364.773129609434	361.773129609434	358.773129609434	355.773129609434	354.773129609434	352.773129609434	351.773129609434	351.773129609434	350.773129609434	349.773129609434	350.773129609434	350.773129609434	350.773129609434	350.773129609434	349.773129609434	349.773129609434	349.773129609434	349.773129609434	349.773129609434	349.773129609434	349.773129609434	347.773129609434	345.773129609434	341.773129609434	337.773129609434	333.773129609434	329.773129609434	325.773129609434	320.773129609434	314.773129609434	307.773129609434	300.773129609434	293.773129609434	287.773129609434	282.773129609434	277.773129609434	271.773129609434	266.773129609434	260.773129609434	254.773129609434	247.773129609434	240.773129609434	232.773129609434	224.773129609434	216.773129609434	209.773129609434	203.773129609434	198.773129609434	192.773129609434	186.773129609434	179.773129609434	172.773129609434	165.773129609434	158.773129609434	152.773129609434	147.773129609434	142.773129609434	138.773129609434	133.773129609434	128.773129609434	123.773129609434	118.773129609434	113.773129609434	106.773129609434	100.773129609434	95.7731296094342	91.7731296094342	89.7731296094342	87.7731296094342	85.7731296094342	83.7731296094342	81.7731296094342	79.7731296094342	77.7731296094342	74.7731296094342	70.7731296094342	65.7731296094342	61.7731296094342	56.7731296094342	52.7731296094342	49.7731296094342	46.7731296094342	43.7731296094342	41.7731296094342	38.7731296094342	35.7731296094342	32.7731296094342	29.7731296094342	26.7731296094342	24.7731296094342	21.7731296094342	19.7731296094342	16.7731296094342	13.7731296094342	11.7731296094342	7.29336824519424	6.58340626364856	6.00560204904384	5.57355522152991	5.28775674770745	5.13833742774233	5.08467357133514	5.08062956914413	5.09354098354776	5.11357794804046	5.13323364136614	5.14755810268103	5.15415823155368	5.15101622418723	5.13884104077190	5.11995028593982	5.09659071797705	5.07051344641130	5.04330249504291	5.01617387683889	4.98925048414312	4.96246421371377	4.93660620589272	4.91392407853730	4.89663871565364	4.88311123390376	4.86784298260556	4.84579269389223	4.81837341157040	4.79080587701398	4.76772928689254	4.75037120389522	4.73881048214015
-9999	-9999	-9999	-9999	-9999	-9999	-9999	-9999	-9999	-9999	-9999	-9999	-9999	-9999	-9999	-9999	-9999	-9999	-9999	-9999	-9999	-9999	-9999	-9999	-9999	-9999	-9999	-9999	-9999	-9999	-9999	-9999	-9999	-9999	-9999	-9999	-9999	-9999	-9999	-9999	-9999	-9999	-9999	-9999	-9999	-9999	-9999	-9999	-9999	-9999	-9999	-9999	-9999	-9999	-9999	-9999	-9999	-9999	-9999	-9999	-9999	-9999	-9999	-9999	-9999	-9999	-9999	-9999	-9999	-9999	-9999	-9999	-9999	-9999	-9999	-9999	-9999	-9999	-9999	-9999	-9999	-9999	-9999	-9999	-9999	-9999	-9999	-9999	-9999	-9999	-9999	-9999	-9999	-9999	-9999	-9999	-9999	-9999	-9999	-9999	-9999	-9999	-9999	-9999	-9999	-9999	-9999	-9999	-9999	-9999	-9999	-9999	-9999	-9999	-9999	-9999	-9999	-9999	-9999	-9999	-9999	-9999	-9999	401.773129609434	399.773129609434	397.773129609434	393.773129609434	388.773129609434	384.773129609434	380.773129609434	377.773129609434	375.773129609434	372.773129609434	369.773129609434	366.773129609434	362.773129609434	358.773129609434	354.773129609434	352.773129609434	350.773129609434	349.773129609434	348.773129609434	347.773129609434	347.773129609434	346.773129609434	346.773129609434	346.773129609434	346.773129609434	346.773129609434	345.773129609434	345.773129609434	345.773129609434	346.773129609434	346.773129609434	346.773129609434	346.773129609434	345.773129609434	342.773129609434	339.773129609434	335.773129609434	332.773129609434	328.773129609434	324.773129609434	319.773129609434	313.773129609434	305.773129609434	298.773129609434	292.773129609434	286.773129609434	280.773129609434	275.773129609434	269.773129609434	264.773129609434	258.773129609434	252.773129609434	245.773129609434	238.773129609434	230.773129609434	222.773129609434	214.773129609434	207.773129609434	201.773129609434	196.773129609434	190.773129609434	183.773129609434	175.773129609434	168.773129609434	161.773129609434	155.773129609434	150.773129609434	145.773129609434	140.773129609434	136.773129609434	131.773129609434	126.773129609434	120.773129609434	115.773129609434	110.773129609434	103.773129609434	97.7731296094342	92.7731296094342	89.7731296094342	86.7731296094342	84.7731296094342	83.7731296094342	81.7731296094342	79.7731296094342	77.7731296094342	74.7731296094342	71.7731296094342	67.7731296094342	62.7731296094342	58.7731296094342	54.7731296094342	50.7731296094342	46.7731296094342	43.7731296094342	40.7731296094342	38.7731296094342	35.7731296094342	33.7731296094342	30.7731296094342	27.7731296094342	25.7731296094342	22.7731296094342	20.7731296094342	17.7731296094342	15.7731296094342	12.7731296094342	11.7731296094342	7.38430139048165	6.65882071428567	6.05872422782780	5.60406369952397	5.30190685388288	5.14640186806368	5.09333729316220	5.09160465051395	5.10518845369029	5.12365688572504	5.13915665408663	5.14614262697176	5.14137783330539	5.12214509893733	5.09005740864880	5.04928230864657	5.00403397617047	4.95860022208733	4.91729266619760	4.88313290044944	4.85530931901027	4.83231117774832	4.81336746761286	4.79896108186140	4.78954715894875	4.78214890575505	4.77035759758579	4.74838618444542	4.71840597889537	4.68728330038264	4.66118052870706	4.64212437278294	4.63074903950654
-9999	-9999	-9999	-9999	-9999	-9999	-9999	-9999	-9999	-9999	-9999	-9999	-9999	-9999	-9999	-9999	-9999	-9999	-9999	-9999	-9999	-9999	-9999	-9999	-9999	-9999	-9999	-9999	-9999	-9999	-9999	-9999	-9999	-9999	-9999	-9999	-9999	-9999	-9999	-9999	-9999	-9999	-9999	-9999	-9999	-9999	-9999	-9999	-9999	-9999	-9999	-9999	-9999	-9999	-9999	-9999	-9999	-9999	-9999	-9999	-9999	-9999	-9999	-9999	-9999	-9999	-9999	-9999	-9999	-9999	-9999	-9999	-9999	-9999	-9999	-9999	-9999	-9999	-9999	-9999	-9999	-9999	-9999	-9999	-9999	-9999	-9999	-9999	-9999	-9999	-9999	-9999	-9999	-9999	-9999	-9999	-9999	-9999	-9999	-9999	-9999	-9999	-9999	-9999	-9999	-9999	-9999	-9999	-9999	-9999	-9999	-9999	-9999	-9999	-9999	-9999	-9999	-9999	-9999	-9999	-9999	-9999	402.773129609434	401.773129609434	399.773129609434	396.773129609434	392.773129609434	387.773129609434	383.773129609434	379.773129609434	375.773129609434	373.773129609434	371.773129609434	367.773129609434	364.773129609434	360.773129609434	355.773129609434	352.773129609434	349.773129609434	347.773129609434	346.773129609434	345.773129609434	344.773129609434	344.773129609434	343.773129609434	343.773129609434	343.773129609434	343.773129609434	343.773129609434	342.773129609434	342.773129609434	343.773129609434	343.773129609434	344.773129609434	344.773129609434	343.773129609434	342.773129609434	340.773129609434	336.773129609434	333.773129609434	330.773129609434	326.773129609434	321.773129609434	316.773129609434	310.773129609434	303.773129609434	296.773129609434	290.773129609434	284.773129609434	278.773129609434	272.773129609434	267.773129609434	261.773129609434	255.773129609434	250.773129609434	244.773129609434	237.773129609434	229.773129609434	221.773129609434	213.773129609434	206.773129609434	199.773129609434	194.773129609434	187.773129609434	180.773129609434	172.773129609434	165.773129609434	159.773129609434	153.773129609434	148.773129609434	143.773129609434	138.773129609434	133.773129609434	128.773129609434	123.773129609434	118.773129609434	113.773129609434	107.773129609434	101.773129609434	95.7731296094342	90.7731296094342	87.7731296094342	85.7731296094342	83.7731296094342	82.7731296094342	79.7731296094342	77.7731296094342	74.7731296094342	71.7731296094342	68.7731296094342	63.7731296094342	58.7731296094342	54.7731296094342	50.7731296094342	46.7731296094342	43.7731296094342	40.7731296094342	37.7731296094342	35.7731296094342	33.7731296094342	30.7731296094342	28.7731296094342	26.7731296094342	23.7731296094342	21.7731296094342	19.7731296094342	17.7731296094342	14.7731296094342	12.7731296094342	11.7731296094342	7.51150901710726	6.75822625791232	6.12824647892971	5.64834193579709	5.33065895357935	5.17192706033891	5.12309959264356	5.12688781722177	5.14312067472994	5.16064275129068	5.17120768895385	5.16883340957699	5.14980211482531	5.11103257749400	5.05499895733935	4.98745279433848	4.91448660806269	4.84380808752234	4.78366649288267	4.73964780760743	4.70942323354498	4.68921211426400	4.67612068972821	4.66875855085151	4.66576473674696	4.66310627693718	4.65407819135437	4.63271384681169	4.60186835825118	4.56960119866093	4.54316971021154	4.52512886230118	4.51645028897509
-9999	-9999	-9999	-9999	-9999	-9999	-9999	-9999	-9999	-9999	-9999	-9999	-9999	-9999	-9999	-9999	-9999	-9999	-9999	-9999	-9999	-9999	-9999	-9999	-9999	-9999	-9999	-9999	-9999	-9999	-9999	-9999	-9999	-9999	-9999	-9999	-9999	-9999	-9999	-9999	-9999	-9999	-9999	-9999	-9999	-9999	-9999	-9999	-9999	-9999	-9999	-9999	-9999	-9999	-9999	-9999	-9999	-9999	-9999	-9999	-9999	-9999	-9999	-9999	-9999	-9999	-9999	-9999	-9999	-9999	-9999	-9999	-9999	-9999	-9999	-9999	-9999	-9999	-9999	-9999	-9999	-9999	-9999	-9999	-9999	-9999	-9999	-9999	-9999	-9999	-9999	-9999	-9999	-9999	-9999	-9999	-9999	-9999	-9999	-9999	-9999	-9999	-9999	-9999	-9999	-9999	-9999	-9999	-9999	-9999	-9999	-9999	-9999	-9999	-9999	-9999	-9999	-9999	-9999	-9999	-9999	404.773129609434	402.773129609434	400.773129609434	398.773129609434	394.773129609434	390.773129609434	385.773129609434	381.773129609434	377.773129609434	374.773129609434	371.773129609434	369.773129609434	366.773129609434	362.773129609434	358.773129609434	353.773129609434	349.773129609434	347.773129609434	345.773129609434	344.773129609434	342.773129609434	341.773129609434	340.773129609434	340.773129609434	340.773129609434	340.773129609434	340.773129609434	340.773129609434	340.773129609434	340.773129609434	340.773129609434	341.773129609434	342.773129609434	341.773129609434	341.773129609434	339.773129609434	337.773129609434	333.773129609434	330.773129609434	327.773129609434	324.773129609434	318.773129609434	312.773129609434	306.773129609434	300.773129609434	293.773129609434	287.773129609434	281.773129609434	275.773129609434	269.773129609434	263.773129609434	258.773129609434	253.773129609434	247.773129609434	241.773129609434	234.773129609434	227.773129609434	219.773129609434	211.773129609434	204.773129609434	197.773129609434	191.773129609434	184.773129609434	177.773129609434	170.773129609434	163.773129609434	157.773129609434	151.773129609434	146.773129609434	141.773129609434	136.773129609434	131.773129609434	125.773129609434	120.773129609434	115.773129609434	111.773129609434	105.773129609434	99.7731296094342	93.7731296094342	89.7731296094342	86.7731296094342	84.7731296094342	82.7731296094342	80.7731296094342	77.7731296094342	75.7731296094342	71.7731296094342	68.7731296094342	64.7731296094342	59.7731296094342	54.7731296094342	50.7731296094342	46.7731296094342	43.7731296094342	40.7731296094342	37.7731296094342	35.7731296094342	33.7731296094342	31.7731296094342	28.7731296094342	26.7731296094342	24.7731296094342	22.7731296094342	20.7731296094342	18.7731296094342	17.7731296094342	14.7731296094342	12.7731296094342	11.7731296094342	7.68730713626301	6.90214545004903	6.23815746596096	5.72963035774726	5.39398596922709	5.23062509238062	5.18543914865982	5.19467308850914	5.21365045643821	5.23003433816523	5.23473153327956	5.22120494083688	5.18547355935932	5.12429699491074	5.04093328831413	4.94247420821281	4.83678193751410	4.73561765291078	4.65205141551263	4.59476790690238	4.55941831170053	4.53926155421284	4.52890532787228	4.52524358340212	4.52532100338261	4.52455554654967	4.51673844779485	4.49643968797789	4.46699888124793	4.43692925484127	4.41387312472966	4.40040056517160	4.39737378313835
-9999	-9999	-9999	-9999	-9999	-9999	-9999	-9999	-9999	-9999	-9999	-9999	-9999	-9999	-9999	-9999	-9999	-9999	-9999	-9999	-9999	-9999	-9999	-9999	-9999	-9999	-9999	-9999	-9999	-9999	-9999	-9999	-9999	-9999	-9999	-9999	-9999	-9999	-9999	-9999	-9999	-9999	-9999	-9999	-9999	-9999	-9999	-9999	-9999	-9999	-9999	-9999	-9999	-9999	-9999	-9999	-9999	-9999	-9999	-9999	-9999	-9999	-9999	-9999	-9999	-9999	-9999	-9999	-9999	-9999	-9999	-9999	-9999	-9999	-9999	-9999	-9999	-9999	-9999	-9999	-9999	-9999	-9999	-9999	-9999	-9999	-9999	-9999	-9999	-9999	-9999	-9999	-9999	-9999	-9999	-9999	-9999	-9999	-9999	-9999	-9999	-9999	-9999	-9999	-9999	-9999	-9999	-9999	-9999	-9999	-9999	-9999	-9999	-9999	-9999	-9999	-9999	-9999	-9999	-9999	407.773129609434	405.773129609434	402.773129609434	399.773129609434	396.773129609434	392.773129609434	388.773129609434	383.773129609434	379.773129609434	376.773129609434	372.773129609434	370.773129609434	367.773129609434	364.773129609434	360.773129609434	356.773129609434	352.773129609434	348.773129609434	345.773129609434	343.773129609434	341.773129609434	340.773129609434	339.773129609434	338.773129609434	337.773129609434	337.773129609434	337.773129609434	337.773129609434	337.773129609434	337.773129609434	337.773129609434	338.773129609434	338.773129609434	339.773129609434	339.773129609434	338.773129609434	336.773129609434	334.773129609434	331.773129609434	328.773129609434	325.773129609434	320.773129609434	315.773129609434	308.773129609434	302.773129609434	296.773129609434	290.773129609434	284.773129609434	278.773129609434	272.773129609434	266.773129609434	260.773129609434	255.773129609434	250.773129609434	244.773129609434	238.773129609434	231.773129609434	224.773129609434	216.773129609434	208.773129609434	201.773129609434	194.773129609434	187.773129609434	181.773129609434	173.773129609434	167.773129609434	161.773129609434	155.773129609434	149.773129609434	144.773129609434	139.773129609434	134.773129609434	128.773129609434	123.773129609434	119.773129609434	114.773129609434	109.773129609434	103.773129609434	98.7731296094342	92.7731296094342	88.7731296094342	85.7731296094342	83.7731296094342	80.7731296094342	78.7731296094342	75.7731296094342	72.7731296094342	68.7731296094342	64.7731296094342	60.7731296094342	56.7731296094342	52.7731296094342	47.7731296094342	44.7731296094342	40.7731296094342	37.7731296094342	35.7731296094342	33.7731296094342	31.7731296094342	29.7731296094342	27.7731296094342	25.7731296094342	23.7731296094342	21.7731296094342	19.7731296094342	18.7731296094342	17.7731296094342	15.7731296094342	13.7731296094342	11.7731296094342	7.90198441520951	7.09552880939081	6.40324212373026	5.86689875567890	5.51027529444877	5.33672789165506	5.28897641172409	5.29878898139110	5.31797097845847	5.33229231209703	5.33095398149794	5.30640241837369	5.25432948695816	5.17126350521136	5.06091129588000	4.93121461435678	4.79135959479467	4.65696688713910	4.54581816684100	4.46974698600695	4.42290800837696	4.39620969275691	4.38228967695395	4.37671667720670	4.37531648755597	4.37329753680688	4.36525088852886	4.34652243385750	4.32052771936939	4.29544295535649	4.27855560660032	4.27201330298335	4.27623308670558
-9999	-9999	-9999	-9999	-9999	-9999	-9999	-9999	-9999	-9999	-9999	-9999	-9999	-9999	-9999	-9999	-9999	-9999	-9999	-9999	-9999	-9999	-9999	-9999	-9999	-9999	-9999	-9999	-9999	-9999	-9999	-9999	-9999	-9999	-9999	-9999	-9999	-9999	-9999	-9999	-9999	-9999	-9999	-9999	-9999	-9999	-9999	-9999	-9999	-9999	-9999	-9999	-9999	-9999	-9999	-9999	-9999	-9999	-9999	-9999	-9999	-9999	-9999	-9999	-9999	-9999	-9999	-9999	-9999	-9999	-9999	-9999	-9999	-9999	-9999	-9999	-9999	-9999	-9999	-9999	-9999	-9999	-9999	-9999	-9999	-9999	-9999	-9999	-9999	-9999	-9999	-9999	-9999	-9999	-9999	-9999	-9999	-9999	-9999	-9999	-9999	-9999	-9999	-9999	-9999	-9999	-9999	-9999	-9999	-9999	-9999	-9999	-9999	-9999	-9999	-9999	-9999	-9999	-9999	410.773129609434	408.773129609434	405.773129609434	401.773129609434	397.773129609434	394.773129609434	390.773129609434	386.773129609434	382.773129609434	378.773129609434	374.773129609434	371.773129609434	368.773129609434	366.773129609434	362.773129609434	359.773129609434	355.773129609434	351.773129609434	347.773129609434	344.773129609434	342.773129609434	340.773129609434	338.773129609434	337.773129609434	336.773129609434	335.773129609434	334.773129609434	334.773129609434	334.773129609434	334.773129609434	334.773129609434	334.773129609434	335.773129609434	336.773129609434	336.773129609434	336.773129609434	335.773129609434	334.773129609434	332.773129609434	329.773129609434	326.773129609434	322.773129609434	317.773129609434	310.773129609434	304.773129609434	298.773129609434	293.773129609434	287.773129609434	281.773129609434	274.773129609434	268.773129609434	262.773129609434	257.773129609434	252.773129609434	246.773129609434	241.773129609434	235.773129609434	228.773129609434	220.773129609434	212.773129609434	204.773129609434	196.773129609434	189.773129609434	184.773129609434	177.773129609434	170.773129609434	164.773129609434	158.773129609434	153.773129609434	148.773129609434	142.773129609434	136.773129609434	131.773129609434	126.773129609434	122.773129609434	118.773129609434	113.773129609434	107.773129609434	101.773129609434	96.7731296094342	91.7731296094342	87.7731296094342	84.7731296094342	81.7731296094342	78.7731296094342	75.7731296094342	71.7731296094342	68.7731296094342	65.7731296094342	61.7731296094342	57.7731296094342	53.7731296094342	49.7731296094342	45.7731296094342	41.7731296094342	38.7731296094342	35.7731296094342	33.7731296094342	32.7731296094342	30.7731296094342	29.7731296094342	27.7731296094342	24.7731296094342	22.7731296094342	20.7731296094342	19.7731296094342	18.7731296094342	17.7731296094342	15.7731296094342	13.7731296094342	11.7731296094342	8.14155672134884	7.34014339772345	6.63624135210525	6.07800879550227	5.69736552459094	5.50401821631911	5.44170660674418	5.44221943705020	5.45632261904079	5.46694968594790	5.46034044883902	5.42711280980445	5.36226276195731	5.26171297935515	5.12898771494345	4.97209574533241	4.80070930537235	4.63318440574216	4.49079444028074	4.38804076793125	4.31929602316839	4.27523144620576	4.24807319145750	4.23268310083607	4.22417767618795	4.21765854512345	4.20821246101674	4.19161206465399	4.17071751084909	4.15257020739644	4.14338028038775	4.14456933529182	4.15594675177417
-9999	-9999	-9999	-9999	-9999	-9999	-9999	-9999	-9999	-9999	-9999	-9999	-9999	-9999	-9999	-9999	-9999	-9999	-9999	-9999	-9999	-9999	-9999	-9999	-9999	-9999	-9999	-9999	-9999	-9999	-9999	-9999	-9999	-9999	-9999	-9999	-9999	-9999	-9999	-9999	-9999	-9999	-9999	-9999	-9999	-9999	-9999	-9999	-9999	-9999	-9999	-9999	-9999	-9999	-9999	-9999	-9999	-9999	-9999	-9999	-9999	-9999	-9999	-9999	-9999	-9999	-9999	-9999	-9999	-9999	-9999	-9999	-9999	-9999	-9999	-9999	-9999	-9999	-9999	-9999	-9999	-9999	-9999	-9999	-9999	-9999	-9999	-9999	-9999	-9999	-9999	-9999	-9999	-9999	-9999	-9999	-9999	-9999	-9999	-9999	-9999	-9999	-9999	-9999	-9999	-9999	-9999	-9999	-9999	-9999	-9999	-9999	-9999	-9999	-9999	-9999	-9999	-9999	-9999	411.773129609434	409.773129609434	405.773129609434	400.773129609434	396.773129609434	392.773129609434	388.773129609434	384.773129609434	380.773129609434	376.773129609434	373.773129609434	370.773129609434	367.773129609434	364.773129609434	361.773129609434	358.773129609434	354.773129609434	350.773129609434	347.773129609434	344.773129609434	341.773129609434	338.773129609434	337.773129609434	335.773129609434	333.773129609434	332.773129609434	332.773129609434	332.773129609434	332.773129609434	331.773129609434	331.773129609434	332.773129609434	333.773129609434	334.773129609434	334.773129609434	334.773129609434	333.773129609434	332.773129609434	330.773129609434	327.773129609434	323.773129609434	318.773129609434	312.773129609434	306.773129609434	300.773129609434	294.773129609434	289.773129609434	284.773129609434	277.773129609434	271.773129609434	265.773129609434	259.773129609434	254.773129609434	248.773129609434	243.773129609434	237.773129609434	231.773129609434	224.773129609434	216.773129609434	208.773129609434	200.773129609434	192.773129609434	186.773129609434	180.773129609434	174.773129609434	168.773129609434	161.773129609434	156.773129609434	151.773129609434	146.773129609434	140.773129609434	134.773129609434	129.773129609434	124.773129609434	120.773129609434	116.773129609434	111.773129609434	105.773129609434	99.7731296094342	94.7731296094342	89.7731296094342	85.7731296094342	83.7731296094342	80.7731296094342	76.7731296094342	72.7731296094342	68.7731296094342	65.7731296094342	62.7731296094342	58.7731296094342	54.7731296094342	50.7731296094342	47.7731296094342	43.7731296094342	39.7731296094342	36.7731296094342	33.7731296094342	32.7731296094342	30.7731296094342	29.7731296094342	28.7731296094342	26.7731296094342	24.7731296094342	22.7731296094342	20.7731296094342	18.7731296094342	17.7731296094342	16.7731296094342	15.7731296094342	13.7731296094342	11.7731296094342	8.37654394734024	7.61420264539884	6.92340388130832	6.35617586276069	5.95331486930161	5.73269951620784	5.64413680808319	5.62504997300167	5.62846137179627	5.63383497808114	5.62344603591260	5.58531969485283	5.51323100996977	5.40196533968974	5.25415716412964	5.07707152404225	4.87991396007561	4.68206203673559	4.50631171761032	4.36888945378229	4.26649361808718	4.19222179285804	4.13991822649131	4.10469281818794	4.08177354269911	4.06628436682359	4.05324524940777	4.03825438412116	4.02292612268355	4.01242402725443	4.01122182306395	4.01981394285540	4.03735515087590
-9999	-9999	-9999	-9999	-9999	-9999	-9999	-9999	-9999	-9999	-9999	-9999	-9999	-9999	-9999	-9999	-9999	-9999	-9999	-9999	-9999	-9999	-9999	-9999	-9999	-9999	-9999	-9999	-9999	-9999	-9999	-9999	-9999	-9999	-9999	-9999	-9999	-9999	-9999	-9999	-9999	-9999	-9999	-9999	-9999	-9999	-9999	-9999	-9999	-9999	-9999	-9999	-9999	-9999	-9999	-9999	-9999	-9999	-9999	-9999	-9999	-9999	-9999	-9999	-9999	-9999	-9999	-9999	-9999	-9999	-9999	-9999	-9999	-9999	-9999	-9999	-9999	-9999	-9999	-9999	-9999	-9999	-9999	-9999	-9999	-9999	-9999	-9999	-9999	-9999	-9999	-9999	-9999	-9999	-9999	-9999	-9999	-9999	-9999	-9999	-9999	-9999	-9999	-9999	-9999	-9999	-9999	-9999	-9999	-9999	-9999	-9999	-9999	-9999	-9999	-9999	-9999	414.773129609434	412.773129609434	411.773129609434	408.773129609434	404.773129609434	399.773129609434	395.773129609434	391.773129609434	387.773129609434	383.773129609434	379.773129609434	375.773129609434	372.773129609434	369.773129609434	366.773129609434	363.773129609434	360.773129609434	357.773129609434	353.773129609434	350.773129609434	346.773129609434	343.773129609434	340.773129609434	338.773129609434	335.773129609434	333.773129609434	331.773129609434	330.773129609434	330.773129609434	329.773129609434	329.773129609434	329.773129609434	329.773129609434	330.773129609434	331.773129609434	331.773129609434	332.773129609434	332.773129609434	332.773129609434	331.773129609434	328.773129609434	325.773129609434	320.773129609434	314.773129609434	308.773129609434	302.773129609434	297.773129609434	291.773129609434	286.773129609434	280.773129609434	274.773129609434	267.773129609434	262.773129609434	257.773129609434	251.773129609434	245.773129609434	239.773129609434	233.773129609434	227.773129609434	219.773129609434	211.773129609434	204.773129609434	196.773129609434	189.773129609434	183.773129609434	177.773129609434	171.773129609434	165.773129609434	159.773129609434	154.773129609434	149.773129609434	144.773129609434	138.773129609434	132.773129609434	127.773129609434	122.773129609434	117.773129609434	113.773129609434	108.773129609434	102.773129609434	96.7731296094342	91.7731296094342	87.7731296094342	84.7731296094342	81.7731296094342	77.7731296094342	73.7731296094342	69.7731296094342	65.7731296094342	62.7731296094342	59.7731296094342	56.7731296094342	52.7731296094342	48.7731296094342	44.7731296094342	40.7731296094342	36.7731296094342	33.7731296094342	32.7731296094342	30.7731296094342	29.7731296094342	29.7731296094342	27.7731296094342	26.7731296094342	24.7731296094342	22.7731296094342	20.7731296094342	18.7731296094342	16.7731296094342	15.7731296094342	13.7731296094342	12.7731296094342	9.22533230489487	8.55119923305963	7.85599494260256	7.20607237515985	6.65283818704755	6.24265241148944	5.99995737099472	5.88408115516951	5.84245307746158	5.83332216475125	5.83327760919640	5.82097786627237	5.78181436194022	5.70791149264670	5.59247396043737	5.43683701373823	5.24713248707772	5.03150135090165	4.80861623015240	4.60068995097789	4.42438764243687	4.27988226985271	4.16429626606431	4.07464488302786	4.00776169366379	3.96041817525155	3.92836236836502	3.90631887687251	3.88942847087722	3.87758763299878	3.87349846106352	3.87938076467699	3.89464962906527	3.91777599793004
-9999	-9999	-9999	-9999	-9999	-9999	-9999	-9999	-9999	-9999	-9999	-9999	-9999	-9999	-9999	-9999	-9999	-9999	-9999	-9999	-9999	-9999	-9999	-9999	-9999	-9999	-9999	-9999	-9999	-9999	-9999	-9999	-9999	-9999	-9999	-9999	-9999	-9999	-9999	-9999	-9999	-9999	-9999	-9999	-9999	-9999	-9999	-9999	-9999	-9999	-9999	-9999	-9999	-9999	-9999	-9999	-9999	-9999	-9999	-9999	-9999	-9999	-9999	-9999	-9999	-9999	-9999	-9999	-9999	-9999	-9999	-9999	-9999	-9999	-9999	-9999	-9999	-9999	-9999	-9999	-9999	-9999	-9999	-9999	-9999	-9999	-9999	-9999	-9999	-9999	-9999	-9999	-9999	-9999	-9999	-9999	-9999	-9999	-9999	-9999	-9999	-9999	-9999	-9999	-9999	-9999	-9999	-9999	-9999	-9999	-9999	-9999	-9999	-9999	-9999	-9999	415.773129609434	413.773129609434	412.773129609434	410.773129609434	407.773129609434	403.773129609434	398.773129609434	393.773129609434	389.773129609434	385.773129609434	381.773129609434	377.773129609434	374.773129609434	371.773129609434	367.773129609434	365.773129609434	363.773129609434	360.773129609434	356.773129609434	353.773129609434	349.773129609434	346.773129609434	343.773129609434	340.773129609434	337.773129609434	334.773129609434	332.773129609434	330.773129609434	328.773129609434	327.773129609434	327.773129609434	327.773129609434	327.773129609434	327.773129609434	328.773129609434	329.773129609434	330.773129609434	331.773129609434	331.773129609434	331.773129609434	329.773129609434	326.773129609434	322.773129609434	317.773129609434	310.773129609434	304.773129609434	299.773129609434	294.773129609434	289.773129609434	283.773129609434	277.773129609434	270.773129609434	264.773129609434	259.773129609434	254.773129609434	249.773129609434	242.773129609434	235.773129609434	229.773129609434	222.773129609434	215.773129609434	207.773129609434	200.773129609434	192.773129609434	185.773129609434	179.773129609434	174.773129609434	169.773129609434	163.773129609434	158.773129609434	153.773129609434	147.773129609434	142.773129609434	136.773129609434	130.773129609434	124.773129609434	119.773129609434	114.773129609434	110.773129609434	105.773129609434	99.7731296094342	93.7731296094342	89.7731296094342	85.7731296094342	82.7731296094342	78.7731296094342	74.7731296094342	70.7731296094342	66.7731296094342	63.7731296094342	60.7731296094342	57.7731296094342	54.7731296094342	50.7731296094342	46.7731296094342	42.7731296094342	38.7731296094342	34.7731296094342	32.7731296094342	30.7731296094342	29.7731296094342	28.7731296094342	28.7731296094342	27.7731296094342	25.7731296094342	24.7731296094342	22.7731296094342	20.7731296094342	18.7731296094342	16.7731296094342	14.7731296094342	12.7731296094342	9.73266936143558	9.20105776684403	8.60962460561494	8.00230797327825	7.42322676625185	6.91677747838638	6.52743598712034	6.28104628986121	6.14809007764141	6.08888662131539	6.06942009574397	6.06527708128663	6.05326474750048	6.01687059973586	5.94626247913639	5.83273657811530	5.67623926571252	5.48182005103382	5.25633929361658	5.01609509463289	4.78055880103079	4.56524130832518	4.37387845721386	4.20802415306670	4.06885249306369	3.95689377314005	3.87249074229349	3.81310689586236	3.77332647552559	3.74791751453546	3.73483780077921	3.73392690622556	3.74479374307058	3.76566808467808	3.79431551011102
-9999	-9999	-9999	-9999	-9999	-9999	-9999	-9999	-9999	-9999	-9999	-9999	-9999	-9999	-9999	-9999	-9999	-9999	-9999	-9999	-9999	-9999	-9999	-9999	-9999	-9999	-9999	-9999	-9999	-9999	-9999	-9999	-9999	-9999	-9999	-9999	-9999	-9999	-9999	-9999	-9999	-9999	-9999	-9999	-9999	-9999	-9999	-9999	-9999	-9999	-9999	-9999	-9999	-9999	-9999	-9999	-9999	-9999	-9999	-9999	-9999	-9999	-9999	-9999	-9999	-9999	-9999	-9999	-9999	-9999	-9999	-9999	-9999	-9999	-9999	-9999	-9999	-9999	-9999	-9999	-9999	-9999	-9999	-9999	-9999	-9999	-9999	-9999	-9999	-9999	-9999	-9999	-9999	-9999	-9999	-9999	-9999	-9999	-9999	-9999	-9999	-9999	-9999	-9999	-9999	-9999	-9999	-9999	-9999	-9999	-9999	-9999	-9999	-9999	416.773129609434	415.773129609434	414.773129609434	412.773129609434	410.773129609434	408.773129609434	405.773129609434	401.773129609434	396.773129609434	391.773129609434	387.773129609434	383.773129609434	379.773129609434	376.773129609434	373.773129609434	370.773129609434	367.773129609434	364.773129609434	361.773129609434	358.773129609434	355.773129609434	352.773129609434	349.773129609434	346.773129609434	343.773129609434	340.773129609434	337.773129609434	333.773129609434	331.773129609434	328.773129609434	326.773129609434	325.773129609434	325.773129609434	325.773129609434	325.773129609434	326.773129609434	327.773129609434	328.773129609434	329.773129609434	330.773129609434	330.773129609434	329.773129609434	328.773129609434	324.773129609434	320.773129609434	314.773129609434	308.773129609434	301.773129609434	296.773129609434	292.773129609434	286.773129609434	280.773129609434	274.773129609434	268.773129609434	262.773129609434	257.773129609434	251.773129609434	245.773129609434	237.773129609434	230.773129609434	223.773129609434	218.773129609434	211.773129609434	203.773129609434	196.773129609434	189.773129609434	182.773129609434	176.773129609434	171.773129609434	167.773129609434	162.773129609434	157.773129609434	152.773129609434	146.773129609434	140.773129609434	134.773129609434	128.773129609434	123.773129609434	117.773129609434	112.773129609434	107.773129609434	102.773129609434	96.7731296094342	91.7731296094342	87.7731296094342	83.7731296094342	79.7731296094342	76.7731296094342	72.7731296094342	68.7731296094342	64.7731296094342	61.7731296094342	58.7731296094342	55.7731296094342	51.7731296094342	48.7731296094342	44.7731296094342	39.7731296094342	36.7731296094342	32.7731296094342	30.7731296094342	29.7731296094342	28.7731296094342	27.7731296094342	27.7731296094342	26.7731296094342	25.7731296094342	23.7731296094342	22.7731296094342	20.7731296094342	18.7731296094342	16.7731296094342	14.7731296094342	11.7731296094342	9.54301908632723	9.05727814979448	8.55096624222519	8.04436224356963	7.55955047161936	7.12875089440329	6.78758435169973	6.55808771325761	6.42192729157181	6.35331802328320	6.32744342171768	6.32112880491235	6.31159552765500	6.28151601045510	6.21901373954379	6.11334135470178	5.96296171612009	5.77177121983756	5.54508767698534	5.29553717340037	5.03820382973125	4.78613776312296	4.54633981861083	4.32469180391069	4.12702755469862	3.95909959071354	3.82641978350849	3.72914626027768	3.66208340385647	3.61994557067042	3.59892076245891	3.59606635262483	3.60844652692210	3.63310154189509	3.66706361665395
-9999	-9999	-9999	-9999	-9999	-9999	-9999	-9999	-9999	-9999	-9999	-9999	-9999	-9999	-9999	-9999	-9999	-9999	-9999	-9999	-9999	-9999	-9999	-9999	-9999	-9999	-9999	-9999	-9999	-9999	-9999	-9999	-9999	-9999	-9999	-9999	-9999	-9999	-9999	-9999	-9999	-9999	-9999	-9999	-9999	-9999	-9999	-9999	-9999	-9999	-9999	-9999	-9999	-9999	-9999	-9999	-9999	-9999	-9999	-9999	-9999	-9999	-9999	-9999	-9999	-9999	-9999	-9999	-9999	-9999	-9999	-9999	-9999	-9999	-9999	-9999	-9999	-9999	-9999	-9999	-9999	-9999	-9999	-9999	-9999	-9999	-9999	-9999	-9999	-9999	-9999	-9999	-9999	-9999	-9999	-9999	-9999	-9999	-9999	-9999	-9999	-9999	-9999	-9999	-9999	-9999	-9999	-9999	-9999	-9999	-9999	-9999	-9999	418.773129609434	416.773129609434	414.773129609434	412.773129609434	410.773129609434	407.773129609434	405.773129609434	402.773129609434	398.773129609434	394.773129609434	389.773129609434	385.773129609434	381.773129609434	377.773129609434	375.773129609434	372.773129609434	369.773129609434	366.773129609434	363.773129609434	360.773129609434	357.773129609434	354.773129609434	351.773129609434	348.773129609434	345.773129609434	342.773129609434	339.773129609434	336.773129609434	333.773129609434	330.773129609434	327.773129609434	325.773129609434	324.773129609434	323.773129609434	324.773129609434	324.773129609434	325.773129609434	326.773129609434	327.773129609434	328.773129609434	329.773129609434	329.773129609434	328.773129609434	326.773129609434	322.773129609434	317.773129609434	312.773129609434	305.773129609434	299.773129609434	294.773129609434	289.773129609434	284.773129609434	278.773129609434	272.773129609434	266.773129609434	260.773129609434	254.773129609434	248.773129609434	241.773129609434	232.773129609434	224.773129609434	218.773129609434	213.773129609434	207.773129609434	200.773129609434	192.773129609434	185.773129609434	179.773129609434	173.773129609434	169.773129609434	164.773129609434	160.773129609434	156.773129609434	151.773129609434	145.773129609434	139.773129609434	133.773129609434	127.773129609434	121.773129609434	115.773129609434	110.773129609434	104.773129609434	99.7731296094342	94.7731296094342	89.7731296094342	85.7731296094342	81.7731296094342	77.7731296094342	73.7731296094342	69.7731296094342	66.7731296094342	62.7731296094342	59.7731296094342	56.7731296094342	53.7731296094342	50.7731296094342	46.7731296094342	41.7731296094342	37.7731296094342	34.7731296094342	31.7731296094342	29.7731296094342	28.7731296094342	27.7731296094342	26.7731296094342	26.7731296094342	25.7731296094342	24.7731296094342	22.7731296094342	21.7731296094342	20.7731296094342	18.7731296094342	16.7731296094342	14.7731296094342	11.7731296094342	9.28371610624334	8.84787506285230	8.42941447022044	8.02781108182054	7.64543039274049	7.30149104032695	7.02087718027254	6.82007001290304	6.69056979946826	6.61922424991977	6.59025355872059	6.58342409920160	6.57821909526995	6.55753200985943	6.50766654493044	6.41596687763599	6.27898795515284	6.09871858474799	5.87819846277173	5.62577144426115	5.35156650035637	5.06574565575153	4.77856515217514	4.50030263144513	4.24154373213572	4.01339616870150	3.82668320981545	3.68452273742049	3.58232724672941	3.51517756081786	3.47818903192158	3.46649738262801	3.47537401574263	3.50082277436221	3.53909395885461
-9999	-9999	-9999	-9999	-9999	-9999	-9999	-9999	-9999	-9999	-9999	-9999	-9999	-9999	-9999	-9999	-9999	-9999	-9999	-9999	-9999	-9999	-9999	-9999	-9999	-9999	-9999	-9999	-9999	-9999	-9999	-9999	-9999	-9999	-9999	-9999	-9999	-9999	-9999	-9999	-9999	-9999	-9999	-9999	-9999	-9999	-9999	-9999	-9999	-9999	-9999	-9999	-9999	-9999	-9999	-9999	-9999	-9999	-9999	-9999	-9999	-9999	-9999	-9999	-9999	-9999	-9999	-9999	-9999	-9999	-9999	-9999	-9999	-9999	-9999	-9999	-9999	-9999	-9999	-9999	-9999	-9999	-9999	-9999	-9999	-9999	-9999	-9999	-9999	-9999	-9999	-9999	-9999	-9999	-9999	-9999	-9999	-9999	-9999	-9999	-9999	-9999	-9999	-9999	-9999	-9999	-9999	-9999	-9999	-9999	-9999	-9999	419.773129609434	418.773129609434	416.773129609434	413.773129609434	411.773129609434	408.773129609434	405.773129609434	402.773129609434	399.773129609434	395.773129609434	391.773129609434	387.773129609434	383.773129609434	379.773129609434	376.773129609434	374.773129609434	371.773129609434	368.773129609434	365.773129609434	362.773129609434	359.773129609434	356.773129609434	353.773129609434	350.773129609434	347.773129609434	344.773129609434	341.773129609434	339.773129609434	336.773129609434	332.773129609434	329.773129609434	326.773129609434	324.773129609434	323.773129609434	323.773129609434	323.773129609434	324.773129609434	325.773129609434	326.773129609434	326.773129609434	327.773129609434	327.773129609434	327.773129609434	325.773129609434	323.773129609434	319.773129609434	314.773129609434	309.773129609434	302.773129609434	296.773129609434	291.773129609434	286.773129609434	281.773129609434	275.773129609434	270.773129609434	264.773129609434	257.773129609434	251.773129609434	244.773129609434	236.773129609434	228.773129609434	220.773129609434	214.773129609434	209.773129609434	202.773129609434	195.773129609434	188.773129609434	181.773129609434	175.773129609434	170.773129609434	166.773129609434	162.773129609434	158.773129609434	154.773129609434	149.773129609434	143.773129609434	137.773129609434	131.773129609434	125.773129609434	119.773129609434	113.773129609434	107.773129609434	102.773129609434	96.7731296094342	91.7731296094342	86.7731296094342	82.7731296094342	78.7731296094342	74.7731296094342	71.7731296094342	67.7731296094342	64.7731296094342	61.7731296094342	58.7731296094342	55.7731296094342	52.7731296094342	48.7731296094342	44.7731296094342	40.7731296094342	36.7731296094342	33.7731296094342	30.7731296094342	28.7731296094342	27.7731296094342	26.7731296094342	25.7731296094342	25.7731296094342	24.7731296094342	23.7731296094342	22.7731296094342	20.7731296094342	19.7731296094342	17.7731296094342	15.7731296094342	13.7731296094342	11.7731296094342	8.99867991014935	8.62679104029476	8.29897189549813	7.99826311651148	7.71158353336608	7.44847004070684	7.22606805079899	7.05688883445811	6.93965689701338	6.87048883235757	6.84094019406261	6.83483525576946	6.83529097553327	6.82638058481350	6.79313358847383	6.72140545413788	6.60514934507232	6.44309563047395	6.23485923412152	5.98450547703343	5.69759899899539	5.38177087005155	5.05078892295258	4.71955770414989	4.40314584314427	4.11690010159433	3.87579005952562	3.68549046828938	3.54238125056254	3.44236772472277	3.38062758719194	3.35190927648014	3.35103748311868	3.37327933638411	3.41405063053089
